ply
format ascii 1.0
element vertex 703
property float x
property float y
property float z
property uchar diffuse_red
property uchar diffuse_green
property uchar diffuse_blue
end_header
-4.2177867918864 -2.5291202898979033 0.9273361292333981 116 94 58
-4.51499003717048 -1.7876519208514654 -0.08963913069083433 53 44 29
-2.2038707599833844 -1.051953990383033 0.13415738088554097 15 11 10
-0.6221883756193843 0.4908605918270798 0.1374559540994803 66 59 49
-3.1336245810887764 -1.4955778223625473 0.3468166162574355 93 90 87
-4.391167026728962 -1.9489920782007593 0.10902955148549538 62 55 37
-3.9547998825134094 -1.9084427848942584 0.2851941531787476 64 55 41
-1.5085070441542432 -0.6297637726155982 0.10828253270139727 79 68 46
-4.958212441745663 -2.1963173170598393 1.0856341806260479 4 5 1
-3.0532224664299608 -1.2981914528746996 0.6736906567612264 29 21 19
-1.006905082921079 -0.04665339317026893 -0.07926465612096281 151 132 90
-2.8699508731950196 -1.7297677008540626 0.27387606725641594 88 72 46
-1.8065590719784623 -0.7668477922585568 -0.008632701056252311 90 72 38
-2.020094938839902 -0.5073586228653832 0.4286700030018271 84 68 41
-3.9989734057047213 -0.9129783695068457 0.12528535147752842 107 91 57
-2.0660051728959865 -0.42893363966975084 -0.2868293077671892 55 48 38
-4.3426785924716125 -2.3519411309868916 0.39600307191203943 60 51 42
-4.256682283716121 -2.11057335400976 0.3464705147527323 54 50 39
-1.0455902825222014 0.25552647127626793 0.15108059568337737 57 52 33
-3.394532286791734 -2.017935321541929 0.6606605471101591 102 87 46
-4.086753677426842 -2.309031731606571 0.47151272755276913 13 11 12
-0.6433678794238257 0.47950663712092184 0.1726749731346851 60 51 32
-4.945376462366997 -1.839745421837429 0.8580298824469719 11 10 8
-2.122137580063096 -0.9735826066248927 0.08866458690743745 18 14 11
-4.886962961380786 -2.61312735430943 1.1953830085217596 103 85 44
-4.350451676475358 -2.3224303773689905 0.393522742810272 60 51 44
-1.654521595070711 -0.6517826274039914 -0.07626345820323276 99 81 45
-4.090997638194854 -1.8600857721035944 0.27514970393621274 50 41 25
-5.016827663678198 -2.4542828469648823 1.2399862446102279 116 95 51
-4.6677938500099545 -0.9513644531107115 0.5959859103716137 9 8 6
-5.022891809361969 -2.786336217965023 1.2612615982870259 83 67 45
-4.422272849108798 -2.132662254544035 0.22321270177462868 59 51 40
-4.187767615646408 -1.108287007221607 -0.05014853829183603 165 165 163
-1.6162790314235436 -0.5983173534638935 -0.023034074350255108 89 73 37
-2.2087162681756247 -1.0333296547350501 0.11354586989792105 11 10 8
-5.171096798847301 -1.3227706037344458 0.8932360433765506 95 76 43
-3.7821075146220253 -2.2708756760793194 0.38937347442578163 7 5 6
-4.712717143927351 -4.913859708071167 0.3626445985269655 193 193 195
-4.50485342440437 -2.528124185687012 0.35539497594278074 64 57 38
-4.904884283360045 -1.8145912556644137 0.9548028511492836 69 53 23
-4.24573275079341 -2.096334936404093 0.3377279576154457 49 45 34
-3.0948680571174645 -1.8772314933947087 0.38350558956160086 108 89 49
-1.7317213722673601 -0.1626509291493812 0.2734587990138582 70 61 44
-4.212456622576176 -1.6254729743584193 0.04612599790306455 71 62 47
-4.087536611746877 -1.7213316327488821 0.2213151900523066 54 46 26
-4.200735106719051 -2.3431817503100203 0.4877196616787661 51 38 21
-4.347354391299567 -2.4852326456745932 0.48710615515551986 61 54 44
-4.535387477355193 -2.5506741477623627 0.2364606036163291 59 47 31
-1.4244371811251049 -0.01575624491419373 -0.06392020624989826 58 49 40
-4.177048481052913 -2.4400719784347418 0.9118139783585889 34 26 13
-1.0296963734482583 0.08352806754131972 0.009831451425889643 11 10 8
-4.643890875858884 -1.3423167066829549 -0.20347826737611627 63 53 41
-0.9216310054243844 0.32633034204871847 0.1267753836741444 51 45 29
-3.1299380800380994 -1.901108708463338 0.6208792210452195 190 190 182
-5.116329696437602 -2.214269557559768 0.7490236900101288 19 17 18
-2.862414310267347 -1.7755279523044565 0.21611944046699186 200 202 199
-0.9825450201414223 -0.015348726325133896 -0.02130200109924322 90 72 50
-4.139985574953051 -2.1951779134977003 0.39121974591960235 55 52 37
-4.297225467099086 -2.06931578175438 0.2885031669724237 64 57 39
-4.431973392930504 -1.6954723426771998 -0.07220873369846899 54 44 32
-3.9949346532939156 -1.4998243104972062 0.1718308348204632 79 68 46
-3.8383986223600868 -1.884295346333545 0.9028192810158366 21 14 8
-1.0856951201552292 0.09703965801280352 0.0419974780340973 90 85 80
-3.952232244404992 -2.647920431469728 0.635948916654422 87 71 45
-4.784626174300628 -2.51502249737283 0.9896484993663135 23 19 16
-1.5009886520725715 -0.23960674391570697 0.15990223678086304 13 11 12
-4.16927768689047 -1.7331573279324912 0.16362869706038477 64 58 46
-4.436353805691121 -2.840897739647415 0.78565672448527 6 6 4
-3.2303141570308203 -1.5418781220370286 0.3440920038940455 81 80 76
-2.7965085146267388 -1.5923262169237282 0.2849732777900243 20 19 13
-4.865410173438758 -3.2418364468906047 1.0087724078463418 88 68 41
-1.4351893455819498 -0.2248712427251226 -0.17600645203942286 94 77 51
-4.014990408048975 -1.5710190152302073 0.19691638550008964 71 59 43
-4.986709400994713 -2.5485994575722235 1.210722575215507 41 31 12
-2.679733897986009 -0.7927753384489946 0.4254601046273886 67 56 28
-1.3416232543903115 -0.4862842575997783 0.07461273433946039 66 56 36
-4.343746672040205 -1.7681460670166531 0.003073485048981932 56 46 34
-4.122094823954122 -1.8728982661007434 0.32473423646963345 119 100 60
-1.1409194080250773 -0.14213968419912046 -0.003968525440983421 126 105 60
-4.166731945568908 -1.9070500444866132 0.2919900719700215 62 55 36
-1.9396414985576027 -0.19363502942805627 0.15900116354111482 60 49 22
-4.895651319761017 -1.786095319603648 0.937821479556689 45 32 15
-4.239000858372343 -2.3975323178775794 0.529707744306277 70 55 36
-1.5569932481767692 -0.6423036361519693 -0.1414027036444062 192 194 191
-4.946318475965324 -1.932078571017643 1.0516251652849002 88 71 44
-2.4937638384660388 -0.9180175148146462 0.38009152371322424 16 15 13
-1.373732567138123 0.004113683619744299 -0.11667358649880552 105 106 101
-4.1439028152830355 -2.1796424155704535 0.9682964202668494 95 79 51
-1.1299345203813707 -0.201301433603869 -0.17212998584420544 57 50 30
-4.472876969743844 -1.7577841898974746 -0.051748668921437264 52 44 31
-1.9150440777234095 -0.889385587423071 -0.042323805244320514 87 77 64
-1.5166358309992114 -0.10846436889288556 0.05156598911670281 79 72 66
-4.309239697930823 -2.1293965533114734 0.30908677537990237 56 49 39
-2.013286673276436 -0.4894054386504862 0.4303860463403485 83 69 43
-4.933927228810202 -1.9303887842305074 1.0728520143330444 193 193 187
-2.176267898721517 -0.9842016356105625 0.060065922364377355 9 8 6
-5.06068521342495 -2.186096362416626 1.072387413789553 13 9 8
-1.0644560832290177 -0.09007872198508343 -0.16769862429614105 82 70 44
-1.4657573989907793 -0.5242820899936718 -0.12424403202581852 85 70 47
-4.164667522106052 -1.9808879826843513 0.3697069330189284 117 99 61
-1.7606554318392036 -0.7496372682234371 -0.023096211004051376 96 77 48
-4.274401244389442 -2.2006078337785766 0.38386627800989126 57 50 40
-4.8683257633210735 -1.5671736192780135 0.863883900649751 54 41 15
-0.8878395459053892 0.3461122449114259 0.14089756547705684 55 45 35
-3.0160878757225515 -1.689918187724479 0.31673249857580277 9 9 7
-4.682006576550103 -2.639280061720187 0.2204102809522849 40 36 25
-4.816097414339748 -1.090012322253507 0.20318565157969426 71 59 45
-1.632281928497031 -0.6820983015478156 -0.17154183120190242 83 67 38
-5.006453447591673 -2.838922684835658 0.43514130163010595 63 57 43
-5.012623177184486 -1.9324771137343808 0.8843140453074703 9 8 6
-4.001526003015 -1.4556252514617412 0.12649032082467151 73 68 48
-4.94021958329975 -1.6829989567901742 0.7035610443142994 16 15 13
-4.8724787692660145 -2.649872012987275 0.7645879947252149 104 89 59
-4.548871623299306 -1.9707629675760985 -0.05514697094094748 54 44 30
-4.527147941814823 -2.0509107884001914 0.053583350044200895 51 41 30
-4.882038192017222 -2.6536020956261055 1.204028130988413 79 62 44
-4.7269671994588345 -3.0447144813929334 1.031235879944528 88 68 44
-0.8163795923235301 0.3149949373768146 0.045706505850036834 67 61 47
-4.304386036176332 -1.7888837499467047 0.08827144083029555 62 56 40
-4.917959688157407 -1.6783397825188473 0.979950511606115 195 197 192
-1.6243501101536513 -0.636818794651918 -0.10823630173610566 83 67 34
-4.188005721609001 -2.0739578607075524 0.4060120447683509 111 95 60
-4.976154993719128 -2.65874949448952 1.2541874543347804 79 66 48
-0.9892244406793295 0.018668495146821923 -0.14663144298824524 157 156 152
-4.9626656504571525 -1.8701927230015958 0.8793520501153494 17 13 10
-4.910119613468703 -2.6544978043729213 1.1849903315590455 31 26 11
-3.8096765033683124 -2.2947413953507683 0.3934173955072498 7 5 7
-4.997985323953257 -1.667682703668214 0.5690752418912274 13 12 10
-4.8831080243662255 -1.4308731204211285 0.8339529690263978 82 67 36
-4.1920670664682955 -1.928581533229001 0.2517684961623641 60 54 40
-4.986776266155741 -2.33661777560379 1.2051701505796983 98 83 45
-1.7371092011620595 -0.7403199200949664 -0.06413388979782986 91 75 41
-4.87749678301459 -1.4355194543670486 0.8651409644917549 99 79 53
-2.1239969269551238 -0.9963934245945163 0.034386681429974295 15 11 10
-1.302419907391244 0.08068517477237146 -0.038076471762112665 37 32 28
-4.61148896059083 -2.587781268633182 0.3285208090397905 63 55 36
-4.158545662547055 -2.067853899966643 0.33518421972085977 58 51 41
-2.1075983360313777 -0.9602198286463773 -0.001536220303470072 17 13 12
-1.2870598722338267 -0.2880788965418822 -0.17781345421056713 29 24 21
-2.0990751086546267 -0.9586665758445901 0.057928507696997825 18 12 12
-3.5245376768109904 -2.2280712075241085 0.5750268451617145 93 78 47
-4.504463807938081 -1.2309174375718792 -0.07836939439882548 68 60 42
-5.097732442464954 -2.370783142291395 1.1784686530389434 24 21 16
-4.371324691529535 -1.6968364592563732 -0.014017225536699904 62 56 38
-4.338432233329485 -2.1583584986771966 0.22054564576551913 61 54 45
-4.3655687384715245 -2.2925972148616833 0.3371289889606633 61 54 43
-0.778086283906877 0.39456985555103247 0.21860092547520726 64 57 49
-4.145761398800593 -1.875166857804672 0.3578614324863444 97 82 51
-1.9620214898393873 -0.9838500874433267 0.24643105737336285 18 15 10
-4.963521027890341 -1.981824168381002 0.6043794046450713 23 22 18
-1.7011613111398174 -0.6582294876502758 -0.10938691691587021 18 13 10
-4.2189709188287425 -1.874221853021913 0.23463299807388638 63 57 41
-1.73127201742853 -0.6439289857590598 -0.10074449646240015 19 13 13
-4.006965489497852 -0.7359101897913994 0.16608387310462547 170 169 165
-4.415879319646276 -1.878923287654285 0.052456985713153576 62 54 41
-1.1845869690695352 -0.30914783987511846 -0.19550711469027116 190 190 192
-1.4522820234071703 -0.3548720169380767 -0.3228298495132955 172 172 174
-1.3389975247750767 -0.4197487429958814 -0.1378716166076372 78 66 44
-3.092099840794674 -1.8870753587646913 0.3190325059412509 77 60 32
-5.041860276896212 -2.4015236722957205 1.258183868555845 87 71 45
-1.8133154966245997 -0.7845039244665818 -0.01767917516063456 84 70 41
-3.8150677891964166 -1.934010906542386 0.8533052954799111 8 7 3
-3.6177482653837725 -2.2918968185458892 0.4826256427068574 71 67 64
-3.757624356295117 -2.622447184450058 0.34648005622995465 201 203 202
-4.136122841581629 -1.8904907866310976 0.3156786543353533 86 70 40
-1.4786055846142123 0.06571713669903063 0.043941806074447 86 77 60
-1.0332143991942515 0.12395328596314256 0.05110059945031906 157 156 149
-1.389954048036085 -0.1532284794712159 0.14671690278100696 17 15 16
-4.26018808838514 -1.5332015903386917 -0.047486808153347555 58 49 34
-4.141395704957525 -2.251940818393168 0.8884865173351303 18 13 10
-4.941242469964543 -1.9098255721743707 0.9290613501037067 10 8 9
-1.3219986134145283 -0.2537449228409162 -0.008002294233245505 22 17 14
-4.98298283851752 -2.0029175890399498 1.0577522500537315 94 81 49
-1.8831094178475383 -0.8276733982131385 0.02489166635679446 99 82 53
-1.133368279380133 -0.04621044323558259 -0.15452996532897287 102 86 50
-3.955255592650805 -1.4812978152760292 0.1676485391560523 67 56 36
-4.147774175532681 -1.9821132863572573 0.35789621211996103 109 91 50
-4.176561152684052 -1.8389102247778324 0.2242361277181364 61 55 41
-1.1011867203005299 -0.14179904965020626 -0.03189046475310547 180 176 173
-4.145646498167093 -1.9901807560676525 0.2574147859088602 65 58 50
-4.293565218906545 -2.4228679487541704 0.5739235010432321 89 75 48
-2.0235670779926482 -1.002597057751059 0.02145612193464287 165 166 157
-4.859486674630699 -1.596262333554492 0.8535557539093611 27 23 11
-4.813741212783444 -1.2756017852390285 0.8309419883466853 182 185 177
-2.7573015768138074 -1.6477737791143172 0.21996654045326688 73 58 39
-4.164667522106052 -1.9808879826843513 0.3697069330189284 117 99 61
-1.52047913989142 -0.45635579240125557 -0.2927654825395611 175 177 176
-1.4415757181243738 -0.5026477005203698 -0.1604727523295504 81 66 35
-1.647381185998344 -0.6470072087687605 -0.10211878926350249 30 23 12
-1.5342640183084468 -0.5520189229181576 -0.12456150841570642 34 26 13
-2.665546584566285 -0.7576114969917129 0.3308142618949906 16 15 13
-1.056248115997336 -0.09051989003257291 -0.030823801093943705 79 63 40
-4.001222941404792 -1.5588004061783027 0.1797562948970092 56 47 32
-3.59168295624983 -2.4148831252700704 0.3347448580212749 88 77 48
-4.475485236902723 -2.320584156454633 0.26232329573027896 60 52 35
-3.9190654051758393 -1.2512623401727707 0.12411158858852087 119 104 72
-0.9476657889856264 0.2588236006794843 0.1867028576149519 73 62 43
-1.9351405468978116 -0.5679284698782081 -0.339649382477651 82 80 68
-1.6623396399146741 -0.7100194380044524 -0.12607979527505325 83 67 44
-4.874708660011443 -1.7146154110216543 0.9374438833499599 119 99 62
-1.761211754868457 -0.1523345690412819 0.13176314336616324 67 56 26
-4.941499889818606 -1.8441354695173684 1.0433077985649015 193 195 189
-4.962700900351475 -2.1029421480115644 1.1020371537596225 119 98 49
-4.2488094244598456 -2.4498252868629504 0.5385446872008911 47 33 20
-5.95011842917922 -2.119326811494096 0.6264921606406366 88 80 68
-1.121421965006619 -0.14565699582882616 -0.00375291260425067 186 185 180
-4.26509880859382 -2.6986834948069753 0.7753755811459879 16 17 12
-2.597296638748821 -1.5220500296250852 0.15708323561296042 176 176 170
-4.27641988832096 -2.4541660708932036 0.5678670372595932 66 58 39
-4.031176338926003 -1.5146843494445035 0.20642054207554122 84 73 53
-2.110540169601291 -0.9687876876668123 0.05248016559793401 22 18 15
-4.8416887212785635 -1.4183502483789932 0.8362963344591877 114 95 52
-4.767617252027064 -0.9901302593311099 0.7388698111452842 74 61 29
-4.809857169151235 -1.3047338723335924 -0.09478931235082762 66 56 44
-1.2882992330119694 -0.23718800165849735 -0.2189456461178564 65 57 48
-0.6545447193548403 0.47281183244362457 0.11342931911117536 66 57 42
-4.9187791267110095 -1.6480175020933445 0.8123362667730512 11 10 8
-4.291389237119019 -2.5291513418513656 0.9997667375303507 87 72 42
-1.0164416549793684 0.2715333275972594 0.14210346198527415 54 44 34
-1.4152689562260476 -0.20057597903651295 -0.1981199299802956 80 73 55
-4.870776119662266 -1.625775043208082 0.8700714881374726 25 19 9
-2.604281100966158 -1.424394314244785 0.22613730993176434 26 19 11
-4.373382195452461 -2.318156574378478 0.36642501645924164 61 54 46
-1.5221216392874468 -0.5455778978023339 -0.10834431423283536 96 78 40
-4.647050172304107 -2.1155964381837764 0.0009081973941379215 50 40 30
-4.7963498872035775 -1.3172991965940832 0.7449892202975354 19 14 8
-4.001526003015 -1.4556252514617412 0.12649032082467151 73 68 48
-1.267699967742857 -0.36168470449730805 -0.187971530428317 80 66 37
-2.687215455426371 -0.7698464524178487 0.41301113982389104 66 54 32
-4.979599483551588 -1.9092706871267777 0.8820483579840599 10 9 7
-4.183998347830564 -2.1429872799422527 0.4062515224342259 63 54 37
-5.069114483651967 -2.2760124070226015 1.2038202209770628 94 79 46
-1.655299916320274 -0.6605525486569254 -0.0459029138904336 74 64 39
-4.068225035157247 -1.696394031352068 0.22201056261769014 64 53 31
-5.049143645341365 -2.3450195155474463 1.2482400746398759 84 69 41
-4.756228030484933 -1.1583484197607399 0.7453369829062089 113 91 50
-1.372718382787188 -0.3590010108795564 -0.00927109908312908 104 85 49
-2.583043792898132 -1.4324791577384168 0.18620855765486216 53 42 19
-1.1333989125407578 0.034747760788414524 0.06975564958979397 13 11 12
-2.5456581568596977 -1.3848520054986861 0.2812176492473416 93 78 45
-4.807173202007252 -2.6000353807295062 0.667131102470757 77 66 46
-5.035041061827024 -2.466648006726227 0.9844485086531145 13 12 10
-4.348594196073292 -2.1402590693586565 0.26848967403054363 61 54 38
-4.26596460487005 -2.350856030250399 0.46839103115612757 62 56 40
-1.0455902822310696 0.25552646853684224 0.1510805962898716 57 52 33
-4.467429836132608 -2.0072803843372595 0.11461394417227554 58 48 36
-3.5194987615772657 -1.8235700611637384 0.3508021341465085 62 62 58
-4.654629882641226 -2.3465816406818827 1.1694022921384253 193 197 198
-1.0392812412880006 -0.08507274668835559 -0.06396721273259949 119 95 69
-4.239669085780977 -2.1361557675956684 0.4276793046215669 74 66 47
-4.034692374884347 -1.6840905277990406 0.23443027198032268 81 66 33
-4.622624143338705 -2.7679948551907585 1.0296856125418434 69 57 31
-4.741484907825962 -2.5175922193144453 1.1101989776818801 29 21 18
-4.6750977298575505 -0.9332706023171844 0.18131003570138984 95 91 82
-3.387325149406967 -1.242428109498394 0.5359402727220802 159 163 160
-3.9546338175624705 -1.0852376127228807 0.07436828975533058 82 70 54
-0.9195393365028658 0.3430521795473347 0.18439645469666796 52 45 35
-3.958871523876897 -0.850694517623409 0.13869903955530347 95 83 54
-4.549176769789113 -1.7407544330360336 0.7293570340615836 8 7 5
-1.1663791792916127 -0.18162072034152152 -0.059871895780313156 35 27 9
-4.350886589381205 -2.3527101319787964 1.0108362088911818 17 12 6
-4.321755151846224 -2.371522394946032 0.4301132193632714 60 54 40
-1.6957372136531619 -0.6828686720495172 -0.04959837044504599 93 79 44
-1.9587098116874038 -0.917121862132956 0.018760027219345624 97 81 51
-3.7000568292385863 -2.2421381607624453 0.4374679068134892 10 8 9
-5.22804966979615 -2.4625000705370907 1.312010094042746 83 69 43
-2.041144102610002 -0.8574344536996522 -0.3416489968184376 15 13 14
-1.6187107414265407 -0.4450094658589682 -0.285852256011937 106 102 99
-1.01017742763094 0.23092055513317128 0.18822885384711183 75 65 55
-4.778968953432768 -2.762958411304538 1.1410373782351462 86 70 45
-4.174881676593107 -2.0447515909409626 0.3921921866915475 117 102 63
-4.093931389539061 -2.7461501859876565 0.7184368911961524 160 152 131
-5.0066455824812985 -2.152223610133523 1.1602909553202179 85 71 42
-4.4583648618256335 -2.269897317500815 0.27807155942033973 63 54 37
-2.908303791084626 -1.3389735941341627 0.47051215054323037 9 7 8
-4.0311913617115085 -1.6843447873328097 0.25924723253020354 104 89 46
-3.8461167134184318 -2.3550002835837662 0.4830231040072178 18 17 15
-4.045603663131427 -2.387833933969233 0.8866497623937553 109 90 48
-1.7250556543331144 -0.13079230190420987 0.10903063822461084 20 17 10
-4.363980748352682 -2.458250220747341 0.4364136726757258 55 48 40
-4.98769613143145 -2.069974473147965 1.0976598556467054 114 95 53
-4.499379826810848 -2.3218866987867792 0.2918428257611928 63 58 38
-0.6266355930642978 0.4875864421444122 0.1309312876344709 72 63 48
-4.252871846832758 -2.3717971201512342 0.5005794406083381 56 43 26
-2.9759442936618674 -0.8671366289649617 0.5165229690695172 195 195 193
-3.8928378038320366 -1.2916891276739486 0.10225522644010053 57 45 31
-4.018625745591646 -0.7746824331952017 0.23585331111102048 87 73 44
-4.04472150285501 -1.5748408321536522 0.19976922624093504 71 59 43
-4.795198204845975 -1.3222600839836571 0.7872385418407323 82 68 41
-4.943925746305752 -1.9188167672878864 0.972510080128117 13 9 8
-1.4676910440170974 -0.450015870850854 -0.04791450742328435 21 17 7
-1.6285486392242943 -0.5975110464399814 -0.005200389733674861 92 75 45
-4.769219156389898 -3.1864651059060503 1.0028115045614059 192 197 192
-2.3570975295853085 -0.7722692220891101 0.5744185793550405 81 65 39
-4.502861883361513 -2.419408109133405 0.32419985381873695 59 52 35
-4.984160796044319 -2.8300232178215987 0.34797014975715795 47 38 21
-3.388490333929844 -1.6558249784382244 0.36490719909302266 76 75 71
-4.856623604387068 -2.7455834322118817 0.775563232170435 67 64 55
-1.7628268033227157 -0.7294331709195235 -0.014482842040813002 99 81 45
-4.641286215926958 -1.9486800919531215 -0.06526293227400835 52 44 29
-3.613904561204894 -1.570583170767998 0.5001458485723118 64 63 58
-5.098771309113784 -1.6349923257803969 0.5833920227746971 9 7 8
-3.941527512328505 -1.4230116912753563 0.14232753922245767 54 45 28
-4.034115340011448 -1.6117003589949783 0.5075630549591029 82 73 58
-2.8087632314724127 -0.9389278829098178 0.5173860002322168 79 65 38
-4.870167018509882 -1.7102519911851692 0.9303761636838466 104 89 48
-4.1574016298572 -2.0094037455501894 0.34634596017512975 59 46 29
-4.9194740896164255 -1.8524273300988194 0.9878870660124052 91 76 43
-1.0953431437197696 0.1242527266914572 0.07895459210489084 46 39 32
-4.49412399876035 -2.8351096012652675 0.926952199263074 82 68 42
-0.6418317677708688 0.38885802642297884 0.03630593937574655 91 72 42
-1.4460555972822005 -0.5015517965717937 -0.13013856218230707 96 81 44
-4.608881092495452 -0.9990099040754689 0.6459614739688805 23 16 9
-4.873272749430192 -1.617389807401655 0.9011247155425106 106 90 57
-2.0857190340268823 -0.9358462079916353 0.20437866173381444 18 13 10
-4.103920976382744 -2.0943306942459827 -0.5158994120079613 179 179 181
-4.965057636751005 -1.7479942526685286 1.0044413212601069 176 169 155
-3.913999969731111 -1.3332869922786035 0.12616250619600577 75 64 44
-1.1375679232580713 -0.15629212030163897 -0.06840405408395811 12 11 7
-5.077841134636611 -2.6207024184075864 1.2939139162838094 89 72 44
-4.964841808144391 -1.8809332548765816 0.5642635880340902 16 15 13
-4.9939475421627275 -2.0536173244662845 1.092321062233199 124 105 73
-2.869787545073261 -1.73140895871418 0.2167562235934368 94 80 45
-1.3829246550994385 -0.44677440306738436 -0.16624839356009447 79 64 31
-4.812486543537578 -1.2114266481430824 0.7689569255668489 119 97 49
-4.908290710955442 -1.794981760236032 0.9296816219877949 25 16 8
-2.501234728217432 -0.9891466526198824 0.0439275358856406 48 43 37
-4.511300255323658 -2.2655127321670174 0.8250959684640371 21 20 16
-4.24575581203833 -2.28692048599478 0.43910831459918803 59 51 38
-1.243824116044001 -0.43081958986414565 0.03524044163389654 73 64 57
-3.9193574162420393 -2.0903746003749912 0.7258403576793614 8 7 5
-3.517043188334404 -0.9689780118600423 0.6683615077884113 199 199 201
-4.981657983422003 -2.316387650417831 1.1745560583200385 42 30 14
-3.992448080864831 -1.5269760588444568 0.16687375540778498 55 44 24
-3.144119613182247 -1.9722731632050752 0.35551400844949116 84 68 41
-3.995497330676135 -1.5616894455521004 0.1800315985718371 57 45 29
-1.0396389564977786 -0.05749200053685957 -0.06946540949258596 20 15 10
-4.940281967146116 -1.9342730776314452 1.0480880296330806 84 70 43
-2.8493875689081687 -1.7323431405431475 0.24496855992826017 78 64 43
-4.00211824061062 -1.5111267789106337 0.1775573883660906 71 58 39
-1.1755808193477233 -0.19143387004575715 -0.009984004734285406 85 70 49
-1.693069073291101 -0.4473627642578638 -0.24390698550754455 90 75 46
-4.979356366154618 -2.515506516301386 1.0050188873787955 9 8 6
-1.3852142969949757 -0.4340769305030638 -0.165001723808689 45 37 18
-4.689634777843478 -2.671149274096986 0.30389828777490957 66 54 30
-0.6266281054632612 0.4851615413193573 0.13853897500505052 60 53 44
-1.6248758821702136 -0.5723709280579286 -0.012559747012180471 10 10 6
-4.8793146505398015 -1.571701964270204 0.9306109309863067 177 177 169
-4.358410087403764 -1.9125283308872547 -0.34280637983749385 133 133 135
-3.3351506573512 -1.2169780129587011 0.6466420426282016 69 58 32
-3.927556002504622 -1.397731121505955 0.15365782172734846 61 54 37
-4.920193882061305 -1.7888611253511917 0.9906636581728132 93 78 44
-4.352565512916487 -2.3824450067654115 0.4177989139515192 58 51 41
-1.9535195082805787 -0.12172264815105192 0.028768656759891008 84 75 60
-1.2872221482488457 -0.12135882406696971 -0.15233953198740097 94 77 49
-1.1345674968360488 -0.15724338258524653 -0.040621668086884465 113 98 59
-3.602745765908337 -1.5232228338269374 0.8486544358596735 81 69 43
-4.656578673778787 -2.8385454248890625 1.0847860852414222 83 67 42
-1.018121083435382 -0.04516122314234763 -0.07863474401027304 24 18 15
-4.274148182599371 -1.7494270680222963 0.10903993734900617 69 64 45
-4.272875885411443 -0.665551754233154 0.4866736916213916 75 64 46
-3.15342402247765 -1.0119095776410947 0.586311166821606 173 171 165
-4.6008311549955145 -1.4737405877361833 -0.23438903104686748 58 51 35
-4.956041322210071 -1.8739959808710132 0.865486351854057 9 9 7
-4.993215142858463 -2.7278796462305204 1.2552551718293923 97 81 60
-1.7851000245892383 -0.7380631006543154 0.012794081626395698 99 81 43
-4.886768852280854 -2.4098405988834233 0.7896351836156794 17 16 14
-4.182152039486606 -1.8805595876738948 0.25736715984293596 55 48 38
-1.7795619410759966 -0.6900148836999841 -0.10262217781941635 19 15 12
-4.6796728610849145 -2.5681813941057605 0.24445162138959306 61 50 32
-4.6015986946153635 -2.8160891523900244 0.6261674386936219 88 81 75
-4.340276827524457 -2.2996119302666758 0.4528239568294126 62 57 38
-4.834400184191185 -2.586305669518266 0.7937609344492864 52 44 31
-2.0652828332613042 -0.38470420858839904 0.20866009559985033 9 11 6
-2.604052175135314 -1.4198017830244638 0.21562255062648614 13 10 8
-4.9257629141237125 -2.681932564527727 1.2139804640870089 158 142 87
-4.709423762446901 -1.3440749388333952 0.7742789292992242 85 70 39
-4.1427051004688344 -1.9135464413259997 0.3444117727875505 122 103 60
-4.261785804840689 -1.6002385035000577 -0.0013772278408944855 61 53 37
-4.8936715516991205 -1.1312516365462075 0.807999748524003 164 162 147
-1.2291394494184829 0.007387376500548893 -0.2696871301955921 43 39 30
-2.238756461460423 -0.5964260333822773 -0.16663973222688852 56 46 35
-2.208396146386004 -1.1243896425555975 0.13754503290828085 73 62 39
-2.80284800312575 -1.24845563605645 0.5890560617378663 6 4 5
-0.9223796516565345 0.2664157139351711 0.17104203139696988 38 38 32
-2.426608565888891 -1.3238849619014743 0.1543989955152221 92 77 43
-1.0177575547608928 0.10972294263433122 0.042368320739313604 16 14 15
-4.984009235315092 -2.193497448864577 1.112980097708943 23 19 8
-2.405106038178557 -0.749377035393241 0.5420811735430042 84 69 42
-4.870078440720411 -1.5298575511448012 0.8959693396686282 98 82 56
-5.058512958120278 -2.69819844413664 1.1959296820678709 20 14 13
-4.059345413962301 -2.935825859556183 0.13973905274908968 71 59 41
-5.124965425137966 -1.1585240136992696 0.8325187567744954 104 84 49
-2.2773402111237617 -0.925087632329745 0.013073863702768947 12 10 11
-1.917652187543727 -0.2510047771801519 0.17260103173693422 64 51 26
-4.441232101698242 -2.1603396648562 0.22092847540411137 60 52 39
-4.967684978849633 -2.2575873059646225 1.1572112346364651 65 44 13
-1.0881568945606108 0.1766052762189822 0.25163612409134545 64 57 46
-4.877511171801491 -2.711103582548529 0.9253405795978047 23 22 17
-1.4189533263751957 -0.2507784644583431 -0.16382680000729546 41 31 21
-2.190666233167431 -0.4596703200401432 0.26384584070527417 56 48 27
-4.568080517723845 -2.680243236534359 0.9071133219898041 19 15 14
-4.5758125326139885 -2.726337228173474 1.0431743794895083 128 103 57
-4.643831785439891 -2.737199762390332 0.7914194598365909 94 79 48
-2.897661094651128 -1.796233169744033 0.24910862870759118 178 179 177
-5.261424682256744 -1.3676659803339566 -0.16817646154293436 60 56 48
-4.152528412949296 -2.5761399928074877 0.863241983491143 135 113 64
-4.826494608482072 -2.4786786387757003 0.7861135357938952 20 20 17
-4.890824059628735 -1.622983482339212 0.9475978146835132 148 145 126
-3.4602233822007173 -0.9956246136023099 0.0734870476118683 90 74 48
-1.4174967881490537 -0.017330319848072488 -0.12351733018047226 110 111 106
-4.79917954817726 -1.121072891401806 0.767488459839298 83 68 39
-2.6934590845724458 -1.2784871975684768 -0.015374495270826512 6 4 5
-0.6298759202112649 0.39701603700884985 0.039278866027668384 87 72 43
-4.861521800394273 -1.5690770770686964 0.9019733984340739 83 70 42
-4.523164064800076 -1.821960416175952 -0.08677835071226025 55 45 33
-5.140910804496841 -2.2416553304513682 1.2088644069805374 88 73 42
-2.990380862961083 -1.071444770597052 0.6454561234995458 100 93 79
-1.232708948301193 -0.3128825899320194 -0.13441798045268596 97 77 49
-4.984296125241797 -2.0022899608074116 0.5836735002511776 49 48 44
-4.1548355708548295 -1.9116012761279575 0.30336751728836875 54 43 25
-0.5575651234674106 0.5269553121899667 0.13504729110235472 99 80 50
-1.6977618391669091 -0.6398099123895921 -0.21937641167609037 23 22 18
-0.8204560398666031 0.20363595035250562 -0.10906169877846981 33 32 28
-4.900534181207572 -1.8062524258250887 0.8326779488067408 12 11 8
-4.50875461571417 -2.479117837536871 1.1374894740663077 94 76 37
-5.220193343105999 -2.5464769729661954 0.8390504260913306 21 20 18
-4.25250377893118 -2.4412011069846846 0.5616471978341526 70 62 43
-2.083307199978181 -1.000277602636713 0.07728034660234859 74 60 31
-4.925368423492433 -2.7999567481633982 0.21572414934877032 65 64 59
-2.52204642208429 -1.1812697969185204 0.27012544890536405 8 6 7
-4.3546394316134265 -2.583652903635518 0.5300695387151928 63 56 46
-4.011636097667574 -1.7477676621413623 0.2914535015939326 84 69 45
-4.746340922191264 -1.1631628246768086 0.6931509234372806 10 9 7
-0.8163795923235301 0.3149949373768146 0.045706505850036834 67 61 47
-1.0986469267403498 -0.12823665083314195 -0.026050799072519535 79 64 45
-6.017496920754283 -2.118227464226123 0.6332814604431121 94 88 76
-2.8908094477477926 -1.765736093561531 0.2636493547724513 78 65 46
-4.122899804435747 -1.737973421434361 0.21520752376842464 64 56 45
-4.564760386712464 -2.377799768253402 0.22171622353786005 55 46 29
-4.78699017467684 -1.356592949703447 0.7764910488556982 40 31 13
-5.0024064485982045 -2.772653807537531 0.2703966040145394 41 33 30
-1.099573465177703 -0.11937812916136979 -0.07103943772529953 15 10 9
-5.001210383979476 -1.889783540703743 0.8874287477800143 12 11 7
-2.5568256056397165 -1.4673918010599565 0.15913516648797987 78 63 42
-4.188005721609001 -2.0739578607075524 0.4060120447683509 111 95 60
-0.6576983172548451 0.4671235339571002 0.1484182676133868 63 57 43
-3.0813005921734744 -1.443849400752808 0.2442846369446127 49 48 44
-4.238280541917245 -2.421078945980377 0.537235730954485 73 61 39
-4.709595478893805 -1.548297735218684 -0.26246397377345154 51 44 28
-4.989474813533765 -2.4438182127976735 1.1009657326099127 12 11 9
-4.4273685275253865 -2.41151263707959 0.35785081517324474 57 50 40
-1.53965855463051 -0.6175441606437451 -0.14153444447981903 159 163 158
-5.113298669603644 -2.472247652506842 1.2488836774409915 42 29 14
-4.974850405668351 -2.18964457727797 1.1449136346969695 116 98 52
-5.0047352267011656 -1.6913300986304365 0.9956425831665577 190 192 187
-4.253021790754235 -1.5008875663354297 -0.020991223765078924 63 54 39
-2.283273041591403 -0.5117700782223595 0.276548843828079 18 15 10
-4.251719986387276 -1.682617186572495 0.08917951789297905 63 56 40
-4.041195182697814 -1.5814727952106968 0.23298135793445343 81 70 50
-5.080454407273858 -2.245448702352678 1.209198754923426 88 69 39
-1.5484323876111126 -0.4030215435165445 -0.29143903290170703 148 148 150
-4.850143631763343 -1.5674543156603278 0.8720143468739058 67 56 28
-0.7511598772085025 0.0949408739096918 0.0630771172508791 203 203 203
-4.165406592831744 -1.977552315494875 0.32190385258220783 50 41 28
-4.40079185185256 -2.508885597340417 0.45419518299362804 59 52 44
-5.147111347577915 -2.528088623729533 1.0049225864736049 18 21 14
-1.9641813688917718 -0.9532847702422497 -0.018662637686527452 169 173 170
-0.6652320103238225 0.3623464138756019 0.11730539374036304 75 62 31
-1.2145505248752788 -0.23450549178191876 -0.029121525766040508 91 75 42
-1.6396438935474624 -0.6199218027549276 -0.17646163099243065 10 9 7
-1.0588172431171452 -0.06681807647759815 -0.19690156292704006 90 76 52
-4.187830257408075 -2.0809118606470776 0.3887747498866927 77 61 36
-1.2275405684850285 -0.244993726848213 -0.04598497990190133 104 86 46
-1.0536208151216668 -0.09683008549540786 -0.08879346236893298 138 116 66
-1.7000383843351006 -0.7779052791063029 -0.18347173953914891 84 69 49
-2.633947934550008 -1.162848990441055 0.055837768510946115 50 46 42
-1.2287008824578618 -0.24189137560099813 -0.014924102370477643 88 71 47
-4.875719069549935 -1.6603373912759931 0.88944740309273 45 34 16
-4.500244479123599 -2.5606865821687728 0.3815189276628867 54 45 36
-4.896375499778597 -1.4240695135074521 0.8835772564247784 168 161 145
-2.957838915726398 -0.9738458936982053 0.5200400175312253 82 68 39
-2.037303245803132 -0.9110034316192067 0.08941211655119544 18 13 10
-1.6883057250618974 -0.7091555302449737 -0.12030934041811256 99 80 48
-4.23411563683846 -1.550006321344025 -0.005659102192006241 68 59 43
-4.1809553050017545 -2.085726243392363 0.36874349459053724 59 48 26
-4.432488713387333 -2.310261117293335 0.30989081584797706 66 59 43
-2.093863358027881 -0.7353680487372307 -0.07972059406402385 39 39 34
-3.899662840922104 -2.5147987813846013 0.7071312385321283 144 126 78
-4.100064310146499 -1.789210166154377 0.26151572101813525 59 52 32
-5.016632883046024 -2.4676496646236377 1.1543556829081503 8 6 7
-4.9178577967262 -1.5413316030441009 0.9025304283518872 90 74 49
-4.780151115715921 -2.5057839898237853 0.8730454959796754 8 6 7
-5.02582813998377 -2.5616749038814937 1.2603437868560814 143 120 66
-1.5777105086814234 -0.5342639936287015 -0.004722468075387702 34 25 15
-4.071318046762177 -1.5911363947629666 0.16606330701790234 57 53 42
-1.9930823571695215 -0.8674553057757163 0.01742750747875157 16 12 11
-2.2462610806018986 -1.0250238413129766 0.04579897299913907 21 16 13
-4.56048882773146 -0.9288475468240788 0.6254701749816136 27 20 11
-1.7250984037580834 -0.7045196880542736 -0.03506506449851967 70 59 35
-4.152283654367127 -1.9850685469733895 0.3467088740621266 71 56 29
-4.041013072319422 -1.1801027693385973 0.13887411445034503 107 91 58
-4.843071318070444 -1.2819605252174358 0.8189786621758889 82 68 39
-5.174260987284025 -2.5556796314243764 1.0414206795265681 12 11 9
-4.99988662702459 -2.4720857054928764 1.2379735060461554 125 106 58
-5.006531608770321 -2.1741381058656803 1.1748285841848445 85 68 40
-1.1074576301123014 -0.14174944869544734 -0.062202938971450156 136 116 68
-4.976865294971154 -1.996034092475838 1.0624904789003844 123 104 62
-5.214017831146719 -2.602503947994139 1.311976652171526 110 91 45
-4.768549602542801 -1.0378823704775428 0.6744206230244082 14 10 9
-4.915332461984495 -1.8409990791841226 1.006924354080982 93 79 48
-3.5381128277314176 -1.5929473286190945 0.44954982740683036 55 54 56
-1.0213090347641112 -0.0555012500865415 -0.07232039731023933 80 56 23
-4.09990114177812 -2.755304152551074 0.6930292227878767 110 88 55
-4.213921942699255 -2.2565702295353134 0.46755226957692597 96 82 56
-4.939349309226456 -1.9455636712697733 1.0299408130001004 86 72 46
-4.850851864287615 -1.53884737164892 0.8303484785215965 13 11 7
-2.4733631181784514 -1.3696171077681292 0.2102764269966475 82 70 44
-4.8212367502454665 -3.187592621103192 1.03954276446548 190 193 188
-1.5096681378765315 -0.5884167651351665 -0.19656406090718864 93 77 43
-4.441175377015201 -2.5978476919449696 1.0241097641372177 122 102 60
-1.4558552375485971 -0.45963083350824707 -0.007240150895350908 174 172 167
-4.251505636749122 -2.6313396324583205 0.8709984501662856 39 32 17
-5.163327959035223 -2.803939930954537 0.2525556436325563 56 51 44
-2.1649850598759994 -1.0570482300472186 0.024010290716127546 24 16 14
-2.1857655499799002 -1.040825611096808 0.37052457636271413 66 50 21
-1.5281002142091016 -0.07760350349203374 -0.11480553163517739 41 31 22
-1.0164829796763597 0.0012640009537229048 -0.16792176567846823 63 54 39
-1.5819982589338648 -0.5344046909911684 -0.2024113047411601 12 11 7
-5.553232533303015 0.15390773461589913 -0.197013421321762 201 201 203
-4.051517401103197 -2.086621244414485 0.9253383285178296 21 17 14
-2.9787715107370603 -1.6632856146445183 0.33858363480040704 13 13 13
-2.355917516213234 -0.3393150737810868 -0.12990280724763995 89 84 80
-5.029589008867433 -2.3309859512389592 1.231258103650638 95 76 46
-4.01980784452832 -1.6041803125546696 0.18905013907204407 53 47 34
-3.385431252668748 -1.52205616221014 0.4759296658836371 25 24 22
-4.254911615349896 -2.5471662345795085 0.5811359510086209 54 45 29
-4.1533219472013565 -1.5066730439192806 0.03611619595651344 63 54 39
-4.913852208193432 -1.6092086555164544 0.7657826121478359 8 7 5
-3.2691018552733055 -1.6279431052680349 0.29671183360481146 44 44 36
-4.1857821083669 -1.7795797177042274 0.17361368997807342 72 64 43
-4.125339763879079 -1.823712167334439 0.31635353068795213 101 81 44
-4.769051649787976 -1.072200284583868 0.7540702561917545 82 65 37
-4.287550978911755 -2.7450184207696626 0.8590685279214494 101 82 42
-2.3898304273293354 -0.6189348007043449 0.23764336974588413 79 72 64
-1.8740785052849593 -0.7980056036183306 -0.012274499982264387 15 10 9
-4.107926238770544 -2.325406211478002 0.9207657324139085 42 31 18
-4.9502233840377805 -2.688015145702199 0.34074920361737354 62 51 31
-3.217452808531385 -1.016960139503529 0.5898700194483101 184 185 179
-1.501735934404978 -0.5590338575320056 -0.15996923871101776 98 83 43
-4.776677675754615 -1.1615735522471546 0.7458101323685676 83 68 39
-4.247768059251441 -2.48142861050474 0.5848678492273557 97 85 61
-1.1364401051031643 -0.0005602814101543301 -0.1481521376475531 77 68 59
-4.703376375794504 -2.34597550860572 0.0686088996235183 37 28 29
-4.850928228860079 -1.0922789355030131 -0.046940808076826566 129 131 128
-2.9087365839335644 -1.4728304866573023 0.6074263784502133 13 14 9
-4.392714172086859 -2.7498801228073173 0.838135546383939 27 22 18
-1.3706429379526759 -0.14027862859146645 0.13054067997545515 17 15 16
-3.9889399198095172 -1.968817843936297 0.3105574637230266 54 48 36
-3.9542575021707935 -1.459022513617559 0.15068917799327042 63 50 33
-1.444565894363231 -0.24747390711099593 -0.10650859384151821 35 29 33
-2.7663760422640893 -1.109716308841633 0.3962101713074986 49 51 45
-2.488676855280121 -0.9442896037365739 0.025162485693626925 53 48 45
-4.585328791101744 -2.583464859744046 0.3221898051926156 63 55 36
-2.7279204110211803 -1.5245773824028845 0.24501389817906782 21 17 14
-4.949794986104126 -1.9351081263094698 1.0789449415105736 192 192 185
-4.922195182238576 -1.9825532745087202 0.5546657542437801 48 45 40
-4.9551953402271405 -1.8563550182014836 1.0316530607069907 87 72 41
-3.8346884689769074 -2.306859566714795 0.43051922423062744 11 12 10
-4.159502169418899 -1.895250051229968 0.3713636474971387 94 80 55
-3.200746045616727 -1.4823511009150507 0.3671742662609305 77 76 72
-4.9335406442367775 -1.9564937233667434 1.0158297058006591 58 43 20
-4.952991245031863 -1.7242001840436632 0.9760045136664361 98 79 46
-4.356191327329587 -2.2031612322924103 0.29263980858113436 63 58 39
-3.692403600357633 -2.0360855397260806 -0.7258345366543767 73 63 43
-1.6077958509598012 -0.6114965182018155 -0.10635535783765959 24 18 7
-4.0151335584272125 -1.4695798504292314 0.1322673771405299 62 61 43
-5.187918238368448 -2.2146692248078614 0.9056067536732448 16 15 13
-4.153790352244139 -2.453534623252025 0.892319565708326 25 18 9
-4.34758774035214 -1.771012586365101 0.04373588862288683 56 47 38
-1.9011494275839156 -0.8179748929462826 0.007490123588818529 9 8 6
-2.73938014854775 -1.615456146641724 0.4326036706186661 74 62 38
-1.1105823444344336 0.02673135511079352 -0.1272482230939357 79 67 47
-4.6680998234799285 -2.761894894973174 1.0711000801904769 77 65 39
-1.6830883957768954 -0.6555796782742684 -0.03338455579056074 81 67 36
-1.328449711541635 0.030190150257288908 -0.08595256453503329 65 56 47
-4.934314157066763 -1.8634060749229107 0.9512445650055097 15 13 12
-3.959593799892579 -1.34763161348665 0.1106352280796175 56 49 30
-1.1138954987348528 -0.03440556221440964 -0.16469441608710375 63 54 39
-4.22187748657113 -2.416999719621774 0.5509791447382889 77 65 40
-2.667214513364814 -0.8427614945415572 0.5386616062989567 193 193 191
-4.523001929848345 -2.545226386520755 1.1060415994738773 78 63 40
-4.9702814181108925 -2.24252781008799 1.0893667368217383 16 12 11
-4.983466627834871 -2.1427320416165827 1.1209152413772285 84 69 35
-4.237656732312415 -1.7588702439737156 0.13362507603206378 71 65 42
-4.763979024484565 -0.9870388752750193 0.7674578526179312 191 192 187
-4.99680469082404 -1.5836768367220753 0.42149632935075554 21 18 17
-5.06321781012872 -2.548135811507818 1.1954541363079416 26 21 18
-2.0851873314921083 -1.0133357843954232 0.06735822897433634 86 72 43
-0.8695733157667312 0.21572901184519386 0.005898172147155441 88 76 57
-2.615309411392544 -1.0410361496158216 0.3479904630330723 80 76 73
-4.983321215564576 -2.3080697159477617 1.1967942140867565 140 120 70
-3.118891174831374 -1.8730269382550648 0.38503108212082865 24 15 8
-4.352109637313929 -2.3810728061234125 0.41713452812984125 58 51 41
-1.8613631134191844 -0.9335646698253072 0.21254156862244172 74 63 41
-0.844258791974386 0.2869637599828304 0.024812956235152464 66 57 40
-3.9007675648442284 -1.4024851975363946 0.09541904182057184 68 63 44
-4.110301458440071 -0.7884779114712844 0.4814870855024059 81 66 37
-4.009488697341824 -1.5215718777282001 0.1396640444089109 63 57 43
-4.50485342440437 -2.528124185687012 0.35539497594278074 64 57 38
-4.54271239954593 -2.453522621987047 0.2884038345474064 53 46 32
-3.9057662233697337 -2.155183359572525 0.5228659113113118 7 5 6
-5.029346952581297 -2.2307122408906643 1.2223794983202856 193 194 187
-4.262700416441616 -2.531997037593687 0.9500894507787042 155 135 81
-3.2706859830349777 -1.9579602049432392 0.36594280235674903 13 12 8
-5.136329895915132 -2.701095950482499 1.3327808723300933 189 190 184
-0.9280022903501153 0.10282021713901857 -0.10203773705985755 91 72 46
-4.923833684994147 -1.6368733389957402 0.9650263121481343 196 197 192
-4.031184479453795 -2.2935064970632264 0.41372543926370664 12 11 9
-1.415993626228314 -0.16580426080893254 0.037409044093643366 65 60 57
-4.0151335584272125 -1.4695798504292314 0.1322673771405299 62 61 43
-5.068353182153504 -2.209475318944835 1.1152630765873122 14 8 7
-1.649321081586069 -0.025103793590701914 -0.029886398290270524 97 91 82
-1.5319374544339714 -0.5473643262858611 -0.004604968292972711 199 200 202
-0.63686656979429 0.4844348625139168 0.1750299544076211 64 51 35
-4.532930713887891 -2.7979958530041715 0.9958743885681836 83 67 41
-4.896083762020601 -2.5234927588138056 0.7450068099292705 53 49 50
-3.2522623384353366 -1.470210604295423 0.34150318567047383 55 54 50
-1.6540462632884152 -0.6632619025194667 -0.1605077163793865 8 7 5
-4.110955682236632 -1.895180432150625 0.3348241440243761 141 121 73
-1.8802745653486315 -1.0003001588952047 0.1933147815249806 65 52 34
-1.217094066146235 0.08073632154203396 0.2768360515875689 66 58 45
-4.078739628543134 -2.507259919527185 0.8303095897538091 75 62 30
-2.6868475176431246 -1.0774855252260973 0.02262797110849785 53 48 44
-4.430342517294407 -2.00340864134875 0.05234660249744487 49 42 34
-4.917989310196044 -1.6679012881793758 0.9437384959113875 79 67 45
-4.170684609491458 -1.9207237293177892 0.28935081191007955 60 51 40
-4.059229077928175 -2.538846625828414 0.4046793070859191 8 6 7
-4.983710998757822 -2.2097850984616803 1.1363576055908635 50 34 11
-4.024519673011815 -1.4062662108031303 0.07185597400032287 65 58 40
-5.098771309113784 -1.6349923257803969 0.5833920227746971 9 7 8
-3.8869124497897665 -2.473231346010376 0.5626189123601784 10 9 7
-2.5491173492674486 -0.8236688542490248 0.4881210627965589 75 65 37
-4.965589199790931 -2.224047470690513 1.1584051032754523 113 94 51
-3.1133549597055477 -1.0744275662383866 0.5721237291232445 74 60 31
-4.1576477236315466 -2.2739916871693535 0.9732141068118488 75 57 18
-5.082356790147585 -2.842858940949218 0.31058588536808146 40 30 18
-4.00865758211725 -1.611776439360201 0.2327186803942655 97 87 61
-2.1519583226325327 -1.0644723071982134 0.07685696099282963 105 90 51
-1.3356079830242473 -0.4248575922284739 -0.17305214519544648 81 69 46
-4.500244479123599 -2.5606865821687728 0.3815189276628867 54 45 36
-5.040813126271859 -2.9031576820373513 0.3254432587976701 62 57 53
-1.1384997186977621 0.08647344085117639 0.33477115084224957 79 65 39
-4.939309565088676 -1.883310866155914 1.0072530751968642 136 117 74
-5.027465206608374 -2.637920461118177 1.2544513555470072 153 134 79
-1.6961823683196062 -0.3574601867673532 -0.32373255816266194 126 127 129
-3.194171660347014 -1.9802090728742348 0.3772032907381284 82 67 34
-1.6232367946204145 -0.6542476012561936 -0.08127595046471811 144 143 134
-2.2642656663384364 -0.7806447023681345 -0.06435311941594926 44 43 39
-1.098784462552932 0.032683233015336766 0.02314886495322315 17 15 16
-4.737160129394622 -2.7312687719443414 1.0201306354185706 26 21 18
-1.075806863893654 -0.1259084280608899 -0.08415221909003946 117 96 66
-4.916167091677339 -1.7982397526710039 0.9681356436454523 102 86 51
-2.1137718222108304 -0.973255307879577 0.15646810028443403 24 15 10
-5.00128634315737 -1.9854626406974512 0.8842635780907476 18 14 11
-3.9238699730040043 -1.3801775960437455 0.13689106515286276 64 55 37
-5.051570698916932 -2.525625012988181 1.000514022957742 24 21 16
-4.2726482272266395 -1.0105915513421748 -0.05555586607387137 81 77 68
-0.6650858548359329 0.35236935539442815 0.020608556888101995 80 67 50
-4.596315036247803 -1.9033656187787609 -0.09268799550588205 52 43 28
-5.197653177109187 -2.4883807770436066 1.2382647942903926 15 11 8
-4.976545821169787 -2.705082548885636 1.198249470472449 32 24 13
-3.926031897261963 -1.396786148929768 0.12714836446438343 57 45 29
-3.2104748445592586 -1.5184148949778147 0.32906656938748596 98 99 93
-2.348398037467918 -0.8010773006767177 0.30228173048998935 82 81 77
-2.3475855243027124 -1.2041907014757423 0.15297955748463885 34 26 15
-4.560361298012075 -1.8582408909349166 -0.07372394484641968 45 36 27
-3.178273825711274 -1.5795386497521926 0.39054855333693217 19 15 16
-4.739383185562244 -2.4295708483918736 0.5773011262982991 76 77 72
-4.290048807055623 -1.6202841936031496 -0.0168286666903469 65 56 42
-4.490918326735133 -2.376135605806213 0.3048719932649414 64 55 40
-1.53796753662097 -0.24824465630661857 -0.3103621168160344 31 24 18
-3.659346600855973 -2.2865190201382344 0.5016518130704757 8 7 5
-3.9632418683847837 -2.3860209182526164 0.8406149284584274 95 79 47
-4.848222677715056 -1.4685792690192099 0.8010835321605766 15 10 7
-4.979482770226851 -1.9233966052130713 0.5850392820292406 11 10 8
-4.949111646807116 -2.215332372512681 1.1742911828408034 98 79 52
-7.411206890442694 -1.4894966129933238 0.6244591451237603 114 98 65
-5.093635581280307 -2.2876620925302293 0.7888981794747411 6 6 8
-4.156209408315978 -2.4700631839170204 0.5988534593292675 77 66 44
-4.353314395537873 -2.6360843626623027 0.9928324850891466 82 67 44
-2.6808388786116986 -1.5993217724534194 0.41870495049855233 74 63 41
-5.03166833143747 -2.405438165185034 1.2353823344061403 95 80 40
-4.925572169613797 -2.7178727430280127 1.206758465438566 133 120 66
-4.944524309562357 -1.8843425961023275 1.030637716294719 89 75 46
-1.0932843191312172 -0.12733802244801107 -0.061008500076708154 130 111 68
-4.273379218697031 -2.438516035711416 1.0198995746289863 91 70 51
-1.6935850733175628 -0.6359771659360324 -0.10283966853091848 10 6 3
-4.1624521035188184 -1.9444171688487086 0.30483244860693065 47 39 26
-3.129761706902534 -1.31628588611719 0.7714107533617114 92 79 56
-1.6758736853855885 -0.64900989539871 0.044663902730257415 172 173 168
-1.6149658553843989 -0.6587418999048064 -0.10102810970133758 145 143 137
-4.583604440039807 -1.1203384106863206 0.6328938266264743 10 9 7
