ply
format ascii 1.0
element vertex 703
property float x
property float y
property float z
property uchar diffuse_red
property uchar diffuse_green
property uchar diffuse_blue
end_header
-4.342841701829137 -2.389204896267663 0.426023027983238 59 52 42
-4.355408389344396 -2.394727419538639 0.4203732951323973 59 52 44
-4.368857872546448 -2.4005714159408047 0.41483209077151506 61 54 48
-4.3721113729802585 -2.4027827835697284 0.40742711641507856 60 53 46
-4.383797204774139 -2.40800842410069 0.4014875096045527 60 53 45
-4.397573203169923 -2.413987297922477 0.39586498613308263 60 53 45
-4.4092658027413965 -2.4192281818636907 0.3898290563925485 61 55 46
-4.4147829152971525 -2.422265204093344 0.3826920827744582 58 54 43
-4.42374318900638 -2.4265386069068837 0.37611113534128615 57 54 42
-4.442546102365904 -2.4343438899307115 0.37113823022709613 58 54 43
-4.453734482687303 -2.4394283658141402 0.364833478919241 55 51 41
-4.465316792971869 -2.4446601660453267 0.35854770792440727 54 49 40
-4.469372515401166 -2.447195957949036 0.3509958456051798 58 51 41
-4.488388436614754 -2.4551088951124935 0.3458203859336837 59 52 42
-4.500602218004927 -2.460586218667604 0.33949386429589246 59 52 42
-4.511617267877679 -2.4656388371783464 0.33293013034691465 58 51 41
-4.52094131918636 -2.4700887469554553 0.32605910888398015 58 51 41
-4.5316293444713125 -2.4750350873883225 0.31935778713096985 60 53 42
-4.538471473025467 -2.478601185719044 0.3120296702918146 61 55 43
-4.54588581324459 -2.4823776809680576 0.30475651127446635 59 53 41
-4.5737870731610375 -2.493551353356157 0.3004824998218857 58 52 40
-4.5812909747119885 -2.497373542706633 0.29312090687263503 58 50 39
-4.589568569033037 -2.501479648699504 0.2858379033284979 58 50 39
-4.599632209594381 -2.5062362303936947 0.27877385767528007 57 49 36
-4.612368525116587 -2.5119652995784763 0.272044286367917 60 51 38
-4.652856625594312 -2.5300195164540287 0.2518541023091473 59 49 37
-4.670262797979078 -2.537470188476521 0.24553853027170347 57 49 36
-4.689804864735759 -2.5457050745133967 0.23943672478707512 58 50 37
-4.705060800848273 -2.5523933614321024 0.23269995643481567 57 47 35
-4.727428193214739 -2.5616740309244523 0.22681676432998765 57 47 34
-4.737336722755176 -2.566435515463589 0.21926693849147738 55 46 31
-4.755537717787042 -2.5742199614298293 0.2127119998931104 53 44 32
-4.766709421629117 -2.5794544345592154 0.20521863497960324 50 41 31
-4.802818849089017 -2.59378086705149 0.20070893394702827 47 40 33
-4.831902261438881 -2.6055636270854086 0.19522237913567753 41 34 29
-4.806427609031348 -2.597457792725432 0.1831889064762433 41 36 32
-4.760081651041326 -2.581722125079821 0.16881366011443166 45 42 38
-4.73543469793435 -2.5738918173571497 0.15707872448073457 46 45 38
-5.303743919386394 -2.782781944348936 0.21220836909050922 48 47 40
-5.129024238692576 -2.7201813256636265 0.18294234115037522 53 53 45
-5.117748800708483 -2.7173168441383746 0.17211727500916374 56 56 50
-4.824492260625584 -2.611182771638819 0.13107526967849248 60 59 55
-4.817266110778993 -2.6097272993360074 0.1212463972705291 64 64 60
-4.808064030991744 -2.6075448574057627 0.11123108154751682 67 68 63
-4.785097710887128 -2.600308684399793 0.09983864751814409 75 75 73
-4.908740707825736 -2.6468910498224822 0.10319892095528105 80 80 78
-4.909338319474126 -2.6483269245999344 0.09401030622989492 87 85 86
-4.92671252850212 -2.6559316120229006 0.0864313693588512 91 90 90
-4.67690977105221 -2.565260815984307 0.05347278273184419 95 95 95
-4.645193005445816 -2.5547503504845155 0.04167201817697619 99 99 99
-4.61415018798375 -2.5444740647370554 0.03003956822664844 103 103 103
-4.542422457729983 -2.5203240935284676 0.006244631063428985 108 108 110
-4.744397545728583 -2.5959989889892827 0.014919315112914777 113 113 115
-4.54802912415196 -2.5246682684976594 -0.010571368227762834 116 116 117
-4.459945215485473 -2.4932588164995186 -0.026468247098793918 119 119 119
-4.293336281540578 -2.4327729094955783 -0.048359622394559376 119 119 119
-4.228685281604682 -2.409932936176591 -0.06165172778384176 122 122 122
-4.170030174004061 -2.3892829486278115 -0.07425659357158199 125 124 124
-4.1128458648483175 -2.369150761606614 -0.0865453457182992 127 125 126
-4.053942432030378 -2.348354844857814 -0.09875878126147053 128 126 127
-3.9922673218072737 -2.3265034859553215 -0.11096227309419504 130 128 129
-3.9357062606085726 -2.3065217835752385 -0.12259299668462742 132 130 131
-3.8824651300043023 -2.2877469806171113 -0.13379987818029548 134 133 134
-3.8140577601455496 -2.263310659777887 -0.14581691290096854 136 136 136
-3.7750053613319032 -2.249759789984145 -0.15571326090018967 136 136 136
-3.748124677887181 -2.2407206982795835 -0.16471695219517257 138 138 138
-3.707158428219052 -2.2264241713573414 -0.17447816460167975 141 141 141
-4.315878648520515 -2.45639656732404 -0.1627832044464268 146 146 148
-4.3200793767826955 -2.459063708411598 -0.17091439761490446 148 148 150
-4.324435798418876 -2.4617919479838983 -0.17905991913841524 150 150 152
-4.328829872835443 -2.464537274696162 -0.18722647674563497 155 155 157
-4.329480676088763 -2.4658853672294887 -0.19559389989501252 157 157 159
-4.3298667534053035 -2.467135596394308 -0.20398274873003652 159 159 161
-4.330253704909379 -2.4683872546653296 -0.2123799349980644 160 161 163
-4.328793187970692 -2.4689475829295193 -0.22086307647787629 161 162 164
-4.399233816200235 -2.4964741741454075 -0.22646144652878952 163 164 166
-4.410473025942811 -2.501818379010973 -0.23459388178157436 164 165 168
-4.276913281760954 -2.4538913018396444 -0.25640500224655116 168 167 172
-4.281694718195014 -2.4567885583684466 -0.26460658510368884 170 169 174
-4.286880914484406 -2.459841346910801 -0.27282027384155294 171 171 173
-4.291929737102338 -2.462845853322861 -0.281064102323088 173 173 175
-4.300336618686069 -2.467118866420827 -0.2892422255370848 173 173 175
-4.3081818755497645 -2.4711851717867006 -0.29747274232467913 174 174 176
-4.316487683134584 -2.4754299621364146 -0.30572855114046815 175 175 177
-3.4749310764472767 -2.1588766290647117 -0.3324178967522116 176 176 178
-3.4690296858624987 -2.157557307848273 -0.3394513392560337 176 176 178
-3.486256960206377 -2.1649776954406423 -0.34605395138993733 177 177 179
-3.492663290391667 -2.168314681894219 -0.35290030029947705 179 179 181
-3.6787639805901815 -2.2406246534439185 -0.3645438747876852 179 179 181
-3.6563106656169038 -2.2330796392206977 -0.3721049031487514 179 179 181
-3.6340945623714167 -2.225614346297175 -0.37958613358972043 180 180 182
-3.552415574214676 -2.195576475763769 -0.3873909305420586 180 180 182
-3.540609233717004 -2.1920287085299837 -0.39455624763516145 180 180 182
-3.6729596521694874 -2.2432453717288614 -0.40125184481522824 182 182 184
-3.6899361739744787 -2.25066562404405 -0.4085784818659731 183 183 185
-4.946042916462132 -2.5147165390728543 1.2916088757548554 198 197 202
-4.742460993626198 -2.451007930383346 1.1844863461147566 121 107 82
-4.7622564698369345 -2.458811576988788 1.1827132446371103 100 83 54
-4.728110972952031 -2.448254364682489 1.1637747953344824 128 109 72
-4.770051826944061 -2.4636116458013753 1.1689306032024256 135 116 68
-4.771037696806455 -2.465022541782252 1.1610974732959993 95 78 34
-4.844244569607549 -2.491076715332871 1.175791393050844 65 51 19
-4.878671742319613 -2.5039230702924975 1.178202801879894 49 38 17
-4.976431470676369 -2.5384214991373977 1.200052744092916 33 24 12
-4.97391387817023 -2.538683289469694 1.190775683943717 17 13 6
-4.9846872272326195 -2.5434911991494626 1.1855611293920587 17 13 10
-4.98883084167976 -2.5460354133121657 1.1782899660002206 20 16 14
-4.99999465368473 -2.55098665681247 1.173120684699221 20 16 15
-5.000675221953744 -2.552350898650235 1.1647565332816565 20 16 15
-5.002632291601027 -2.5541540596846035 1.1567651586025272 17 13 12
-5.009533567013251 -2.5576555035228457 1.1502309737121077 11 9 6
-5.001477678346914 -2.556025184166722 1.1392440720402388 10 9 6
-5.001242640991045 -2.5570792949259102 1.1305769601572566 10 9 7
-5.00497576856486 -2.5594984005169543 1.1230644337791909 9 8 7
-5.001434354191928 -2.5594175318037555 1.113417341151002 9 7 8
-5.027351880483318 -2.5694764270748487 1.1122940393822494 10 8 9
-5.065587613812266 -2.5837903224937278 1.1146207371086256 10 8 9
-5.059344256086314 -2.5827917382981394 1.1040987158024822 10 8 9
-5.054135904383857 -2.58214829033143 1.0938845983578025 9 7 8
-5.042867716489312 -2.5794122895846123 1.081968298040407 11 9 10
-5.034991254256803 -2.577843478707441 1.0710352071276574 11 9 10
-5.047775135974768 -2.583410820502479 1.0658916985049645 11 9 10
-4.945914412879127 -2.549346992594229 1.0288681943264606 9 7 8
-4.950506880633241 -2.552068371181595 1.0215551573917174 10 8 9
-5.029596382364448 -2.580582026625571 1.034657935224897 10 8 10
-5.0144626775884005 -2.576492353642127 1.0217986467379532 11 9 11
-5.028495458654054 -2.582506570462084 1.0168876742569481 9 8 8
-5.018213677935836 -2.5800946706086227 1.0053736138296556 12 11 9
-5.01865280789331 -2.5813999189729895 0.9967569438012536 14 13 11
-5.021771880221909 -2.58363694056444 0.988844959017154 13 12 10
-5.32707851136337 -2.6908843519666297 1.06081232683013 12 11 9
-5.316386847081653 -2.688390080212126 1.0487348682676298 12 11 10
-5.36545611990689 -2.7066848342288976 1.052287320113725 11 9 10
-5.365644729200182 -2.707984217765254 1.0429893041278218 12 10 11
-5.410106321236705 -2.724708127437742 1.045094003610983 13 11 12
-5.397515332899008 -2.721564501416874 1.0324337042431193 13 11 12
-4.89022285358828 -2.5458582136791783 0.8939569042607749 12 10 11
-4.902353465780475 -2.5512250218345027 0.8884401089681913 11 9 10
-4.923058875729722 -2.559592858434286 0.885028726405312 9 7 7
-4.936608560940628 -2.5654699940960426 0.8797567437708369 11 10 8
-4.839466429617455 -2.5326455767496245 0.8470133299932648 13 12 10
-4.839363027821002 -2.5337345737794257 0.8384632707813171 16 12 11
-4.849979049760112 -2.5385776944887573 0.8325261594537141 16 14 12
-4.909710154670574 -2.5606343588720026 0.8384657176116945 16 15 13
-4.901090433232055 -2.5587558700438073 0.8277255351862967 17 16 13
-4.898357266540998 -2.5589394842118036 0.8184162195006652 20 19 16
-4.886204382061422 -2.5558162281076875 0.8068708163149454 29 28 26
-4.892985753406151 -2.559339089614742 0.7998269940823639 46 45 42
-4.884621303413114 -2.557542567727117 0.7892053536633683 53 52 50
-4.886825489665047 -2.559460141299125 0.7810630803228937 52 52 48
-4.893347654370493 -2.562899166835647 0.7739034757062637 54 54 50
-4.8959778154808005 -2.5649714838764437 0.765822914441681 57 57 54
-4.8994075599352955 -2.5673276269572036 0.757908480526617 55 55 53
-4.913995475010654 -2.5736204164737115 0.7524952458362644 56 55 53
-4.918639545311104 -2.576412366933226 0.7447970368138384 59 55 53
-4.923791962970224 -2.579386774501256 0.7371892148715922 58 54 49
-4.2969083614297325 -2.3590938995711457 0.5900453448259224 54 49 42
-4.279367630844995 -2.353911594459455 0.5784907377097726 57 51 39
-4.230116734051023 -2.3375062143306584 0.5600977686724 66 58 39
-4.176461458507595 -2.319520704243474 0.5409163802185006 74 64 39
-4.030704884394468 -2.268893930035921 0.5022076794127025 73 63 40
-4.097133730880834 -2.2933962568775277 0.5090222442454664 76 65 42
-4.309143615910622 -2.3695526795706776 0.5462537402264372 71 61 38
-4.308219050118457 -2.370250238830123 0.5382903242945523 67 56 34
-4.301169971567077 -2.368773671638958 0.5290553732400108 67 56 34
-4.29244095358017 -2.3666978980636775 0.5194932248705211 64 53 32
-4.303036038717828 -2.3714888055165817 0.5138910376955909 56 44 26
-4.268406081797128 -2.360197406517533 0.49911143693914006 53 43 27
-4.272684880853653 -2.3627409853095775 0.4922367283543161 58 50 35
-4.251894056843027 -2.3563579593017705 0.48036327111675114 61 55 41
-4.240390627710308 -2.35327644606883 0.47038314051781305 63 57 46
-4.236250787379171 -2.3528166502783106 0.46187319791600656 64 57 49
-4.272374449316841 -2.366724301411913 0.4611588501200654 58 54 45
-4.3130724224354005 -2.382282594783435 0.46119101268888796 57 54 45
-4.329022424389329 -2.389017349350773 0.4563754269687166 58 53 46
-4.33656694537537 -2.3927548609384015 0.4499162738175039 58 53 46
-4.3407234501054175 -2.395284505279756 0.4427928390165281 61 57 48
-4.345430356356123 -2.3980139205489603 0.4357504521762965 57 52 42
-4.346813512267747 -2.3995556639847333 0.42807696224907477 59 52 42
-4.359174984536711 -2.4050340997993285 0.42238327066601145 59 52 44
-4.372420849553825 -2.4108362336217586 0.41679932701916433 59 52 46
-4.379358165941912 -2.4143810561269423 0.410040908940573 59 52 45
-4.3912823455589045 -2.419720874983648 0.4041305384802164 59 52 44
-4.404703680460707 -2.4256050279892594 0.39843354925879926 60 53 45
-4.412900889790958 -2.429617599759939 0.3917813685652122 60 53 45
-4.419959508906703 -2.43322508968342 0.3848995916253396 57 52 43
-4.429144313363468 -2.437602219534961 0.37834657932067806 59 54 45
-4.4410591138813444 -2.4429680016726545 0.3722123329532737 59 54 45
-4.4532585573838785 -2.4484427382989793 0.36607725643064726 57 53 44
-4.46574417564416 -2.454027185914068 0.35994005600571055 57 53 44
-4.476100076616674 -2.458849475194361 0.35340717630503415 60 53 44
-4.487081710858394 -2.463903424114908 0.3469319905994981 59 52 42
-4.49978826713362 -2.469586757040145 0.3406856878532579 59 52 42
-4.513554731571416 -2.4756601618755356 0.3345547516702525 58 51 41
-4.523384504473398 -2.480316130508839 0.32775771908637963 58 51 41
-4.535857608301479 -2.4859347484136576 0.321325381219812 60 52 42
-4.544391149588912 -2.4901324895941856 0.3142446956108186 61 54 42
-4.549160762698915 -2.492970311335747 0.30656266304516666 58 50 39
-4.585082608297741 -2.5071139233882125 0.30347594150429513 57 50 38
-4.593621676891696 -2.5113336872747003 0.2962444198047268 58 50 39
-4.603912060566216 -2.516194543197825 0.28922954114179567 59 51 40
-4.6110827559175025 -2.5199270252326613 0.28172548900712824 58 50 37
-4.6201650997183465 -2.5243591101163583 0.2744592874891879 57 49 36
-4.678832915202839 -2.5502852582819586 0.24800229551912356 59 51 38
-4.69809872316687 -2.5584643776883254 0.24185003140034844 57 49 36
-4.717953691947956 -2.566868552787054 0.23569954088196665 57 47 35
-4.739803826934112 -2.5760119349148574 0.2297288083754505 56 46 34
-4.749856538579284 -2.580853173682754 0.22217399816166816 57 47 34
-4.764110156892813 -2.5872369566036415 0.2151028906027468 52 43 33
-4.803721089493489 -2.6029112214468895 0.211107179180813 50 41 34
-4.820666866956191 -2.6103023894290285 0.2042032969939953 45 38 31
-4.835935244633841 -2.6170876170775115 0.19703059304439807 45 38 33
-4.83589837058921 -2.6182672341897986 0.18798671139098522 46 41 37
-4.802218246854982 -2.6071000426711457 0.17501783176054775 48 44 41
-5.306595269998152 -2.7935225041699785 0.22386007931074214 48 47 42
-5.3066435554671365 -2.7948470563970544 0.21396484962660112 51 50 45
-5.096033219996992 -2.718707955175944 0.18065673395849724 54 53 48
-5.0870655311005635 -2.716667499312625 0.1701355608277728 58 57 52
-4.863794013992038 -2.635717601964847 0.13659465964848616 62 61 57
-4.850999491360752 -2.6322102098430915 0.12610068130695695 66 67 62
-4.805080696182328 -2.616485821182609 0.11220173836557512 72 73 68
-4.785660143673363 -2.6105160825094424 0.1011669107029669 76 76 74
-4.763697782315208 -2.6035998366082067 0.08993921036155839 83 82 81
-4.751082924393652 -2.6001269447742636 0.07970435344192373 89 87 88
-4.926335461553717 -2.666088084395941 0.08768858960526882 94 93 94
-4.6594053642300794 -2.5685900897384495 0.05303738569691274 98 98 98
-4.63250943260661 -2.5598010640710385 0.04170533719633829 100 100 100
-4.601870427437042 -2.549614039751357 0.03012085635038908 106 106 106
-4.567589539089482 -2.538063829624085 0.018313349863099848 111 111 113
-4.531734997274351 -2.525914727292937 0.0064841850737412665 112 112 114
-4.657729846988617 -2.5738026661242395 0.008691577581619314 113 113 115
-4.511976756341762 -2.520856491327729 -0.01243471130909668 118 118 119
-4.413686784011558 -2.4854752507611484 -0.02913242696641527 118 118 118
-4.275526492362197 -2.4352258350684357 -0.04869301993669295 121 121 121
-4.209909128188052 -2.4118971483820593 -0.06204842446491976 125 125 125
-4.14611669922545 -2.3892172701572383 -0.07503236373115363 125 123 124
-4.088304735976363 -2.3687353126710375 -0.08734235526033085 128 126 127
-4.030453708890106 -2.348211959526579 -0.09945189481917793 130 128 129
-3.964815045305328 -2.324757270493163 -0.111914382336891 132 130 131
-3.912539409087789 -2.306258954886226 -0.12321370630741957 134 132 133
-3.8515615054184154 -2.284486617778227 -0.134919474255771 134 133 133
-3.796645817004298 -2.264951098765045 -0.1460091546710477 135 135 135
-4.334758352534665 -2.4682366898105754 -0.1271913174144893 139 139 139
-4.142849970506562 -2.397490435205897 -0.1471757780414703 141 141 141
-4.154806627174305 -2.4030285820095325 -0.15449463857618628 143 143 143
-4.166268965631034 -2.408388063717496 -0.16189197175404157 145 145 147
-4.177568328632465 -2.413692824690273 -0.1693468813643435 147 147 149
-4.322579557568718 -2.4691946770826925 -0.16973223749159372 150 150 152
-4.327691504244735 -2.472220451017388 -0.17784647082665384 151 151 153
-4.333094874725645 -2.475359146418401 -0.18597194446356713 155 155 157
-4.365544568952858 -2.4886732677579784 -0.19283336300224785 158 158 160
-4.314608692061934 -2.470623225701294 -0.2036475174467265 159 159 161
-4.319059499704082 -2.4734067167890466 -0.21184153433826103 159 160 162
-4.327078535807448 -2.4775378666683934 -0.21990827315137773 161 162 164
-4.263088387153931 -2.454521845894998 -0.2309183284796973 164 165 167
-4.269796810301567 -2.458150613110303 -0.23897585408023103 167 167 170
-4.247951795124895 -2.4510032135416115 -0.24811231862747507 167 166 171
-4.279332670676216 -2.463954475708766 -0.25532108828012134 169 168 173
-4.285957652326065 -2.467563302156628 -0.26346927495381933 170 169 174
-4.292723109053236 -2.4712294200116673 -0.27164454667787774 172 171 174
-4.308761061679642 -2.4784096455781244 -0.27958032418919754 172 172 174
-4.305013378444957 -2.478104419662606 -0.28812521240547506 174 174 176
-4.311975164763099 -2.4818573398470987 -0.2963893356270205 175 175 177
-3.491368393904997 -2.1735846503990706 -0.3382097856456606 178 178 180
-3.492659228093469 -2.174993342377867 -0.34514271042493355 177 177 179
-3.499093025408335 -2.1783590066539897 -0.3520025207184171 178 178 180
-3.636956242487353 -2.231735976938854 -0.356997660869502 179 179 181
-3.6421931355893316 -2.2346861662917936 -0.36417726755864255 179 179 181
-3.6477175733756795 -2.237749283369172 -0.37137940009838616 180 180 182
-3.6480831056440217 -2.2388492075047424 -0.3786537045083677 181 181 183
-3.6289242664382266 -2.2325020637205535 -0.3860710177222635 181 181 183
-3.581285552358526 -2.2152748748299453 -0.39356714402282406 181 181 183
-3.6687184963421497 -2.249618088745904 -0.4004588130957802 181 181 183
-3.686639548357062 -2.257436789567659 -0.40777633209077835 182 182 184
-3.9339381588675493 -2.3855287320018386 -0.6617860696757347 190 190 192
-3.911595154150284 -2.37786754038975 -0.6684726430666545 189 189 191
-4.92643370253291 -2.5177525052469285 1.286988627919367 198 197 202
-4.770877231794063 -2.4700877067292657 1.195329054042922 133 119 95
-4.765324758138054 -2.4692641072269375 1.1854303663632355 96 79 51
-4.7555664538770035 -2.4669987236937603 1.1742089962113154 121 103 65
-4.751311538253454 -2.4666157361559833 1.1647500745700077 138 119 71
-4.767439815111936 -2.473220500262735 1.1616993752004519 108 90 45
-4.733916768625424 -2.462798505675234 1.1430791360423038 71 56 21
-4.7047957765485755 -2.453874130359983 1.1259295952517459 55 42 19
-4.959356521765848 -2.542386735079292 1.1965662665009746 37 28 13
-4.954340462983131 -2.5417856902267983 1.186544333776434 23 18 10
-4.973085369291029 -2.5493558387273136 1.1838002121603108 15 13 9
-4.976656764029051 -2.551712819286494 1.1763717610295137 18 14 12
-4.9854636095155005 -2.5558751985103294 1.1705093542193379 20 16 15
-4.990430899851699 -2.5587191813916377 1.1634558655399376 20 16 15
-4.994691113884101 -2.5613223921092585 1.1561677954669278 17 13 12
-4.998314719528037 -2.563708687876481 1.1486695673289709 14 12 8
-4.991782184014035 -2.5625910902318423 1.1381457722413957 11 10 6
-4.9898793018742555 -2.5630709138436822 1.1289998190422195 14 13 9
-4.986158385430238 -2.5629223439118736 1.119321076862515 11 9 8
-4.9808710264498695 -2.5622312194247705 1.1091917499718742 9 7 8
-5.016142713146006 -2.5755767340096636 1.1108154729626962 11 9 10
-5.031996530437619 -2.582213477107505 1.1067266836022036 10 8 9
-5.032310772706545 -2.5834727945968887 1.0981311420460391 10 8 9
-5.025490457387111 -2.5822591168283684 1.0874974215203703 10 8 9
-5.0163200436550035 -2.5802279133980663 1.0762144503092823 9 7 8
-4.9726442211749005 -2.5662131786930096 1.0552491920734364 11 9 10
-4.965285010279643 -2.5647974746374027 1.0445765298085878 11 9 10
-4.948205325633677 -2.5600002039875402 1.0312193294193919 12 10 11
-4.932096391455608 -2.5555340355275584 1.0181800786551343 10 8 9
-4.979635931118499 -2.5732164471435555 1.0226698160354093 12 10 12
-4.932466670171029 -2.557933614135586 1.001138379693958 12 10 12
-4.886250992741927 -2.5429633199832065 0.9800152143134394 13 11 11
-5.028839612343932 -2.593816880322633 1.0099592817856369 14 13 11
-4.79594580379978 -2.513706429874742 0.9387785206689554 15 14 12
-5.34013208839347 -2.7072947321098155 1.0567827943174246 11 9 9
-5.382774266618555 -2.7234446195977347 1.0586276696177037 10 8 9
-5.3748768961894875 -2.721922444578321 1.047196772890846 13 11 12
-5.408033114051061 -2.73477802968569 1.0463789819561127 13 11 12
-4.090596507907504 -2.275223994320453 0.691922859368975 12 10 11
-4.909855674571528 -2.565984278451132 0.8747257673099511 10 9 7
-4.862287567933354 -2.550403214037056 0.8542882365342703 12 11 9
-4.857246796289068 -2.5497643729746944 0.8444799276852337 16 12 11
-4.878277304209334 -2.5583026740314825 0.8410606349952328 14 12 10
-4.865880195357725 -2.5550754836261973 0.8294413111938932 15 14 12
-4.895295970833071 -2.5665826563478755 0.8279467424323459 15 14 11
-4.881038701126744 -2.5626994236108653 0.8158810965222005 20 19 15
-4.884148958803663 -2.5649405099872586 0.8079891222353635 31 30 26
-4.881387166416319 -2.565110074024034 0.7986924908083872 43 42 38
-4.862585973453251 -2.5596111377926434 0.7856358736809679 49 48 44
-4.85898708905159 -2.5594804580756403 0.7761762761357511 50 50 45
-4.858204650613115 -2.560345639757534 0.7673731516232822 52 53 48
-4.8701746879817644 -2.5657265404491314 0.7614926391017589 56 57 52
-4.893892303747903 -2.5752757102816224 0.7582410958520047 54 55 51
-4.928653457975231 -2.5887514687843254 0.7573996115051889 55 54 52
-4.944286576322924 -2.595458372968797 0.7521405096470339 59 55 53
-4.93558803028881 -2.5935364833436942 0.7414018895243173 58 54 49
-4.30138158648204 -2.3694415205863306 0.5924238464490088 57 50 43
-4.253945510761913 -2.3536053377580353 0.5742956598300261 61 54 40
-4.202618790497838 -2.336364971385911 0.5554757792404916 71 62 41
-4.151883264557815 -2.3193126693118145 0.5369520550737783 73 62 36
-4.106050327274453 -2.3039840241611107 0.5196453400686839 74 64 39
-4.1108247284572155 -2.3066673798452166 0.5132446791807977 76 66 41
-4.308055093957761 -2.377971085065422 0.5473975288979497 69 59 34
-4.297507509177641 -2.3752375181920033 0.5374198915836074 65 54 32
-4.294429682599086 -2.375166614215912 0.5290214309805621 68 57 35
-4.304736499200774 -2.3798763211371865 0.5233806307412744 62 51 29
-4.308137030669826 -2.3821229313959775 0.5162895078160881 54 43 25
-4.282341764923118 -2.373929523428097 0.503274602480402 55 45 28
-4.253318357850187 -2.3645699023504303 0.48969435828764973 59 51 36
-4.23684486621878 -2.3596923146198634 0.4787030913444026 61 54 41
-4.243044647151732 -2.362932991913971 0.4722320736588368 65 59 48
-4.278907425504834 -2.376813743767417 0.47153054824083174 64 58 49
-4.290901896891011 -2.3821476039738156 0.466076107513687 59 55 46
-4.30141835498848 -2.386957100597994 0.46029041972419615 56 53 44
-4.309633251386117 -2.39094536282348 0.4540243655522972 56 52 45
-4.320022174605683 -2.395719740411753 0.4481336356243476 59 54 48
-4.330449231121267 -2.400513413287051 0.4422079156569778 60 55 47
-4.336887153359033 -2.403876821766482 0.4355015297244985 58 53 44
-4.343438387308384 -2.4072848263758146 0.42878735069658847 60 53 43
-4.357570680653668 -2.4134289009704935 0.4234212008483893 59 52 43
-4.370397839927979 -2.419109622281864 0.41776498830530107 58 51 45
-4.384807118108557 -2.4253679966811745 0.41233987413483886 59 52 45
-4.389132537609722 -2.4279926554777136 0.40507914110663057 56 49 41
-4.4011880461227815 -2.4334131869082714 0.39914751276977845 59 52 44
-4.408953966559786 -2.4372892183516637 0.3924255763958897 60 53 45
-4.435713703093393 -2.4480412508507254 0.3889227251553834 60 53 45
-4.43349780793124 -2.4483170120004476 0.3804088553401722 60 53 45
-4.446124655344994 -2.453969252948828 0.37438623534612203 57 50 42
-4.459461809117049 -2.459885650102396 0.36843102617564394 57 52 43
-4.472701261358678 -2.4657736378655573 0.3624067130047953 59 55 46
-4.484619217482772 -2.4711890027509527 0.3561148283849692 61 54 44
-4.495083790173484 -2.4760829403432796 0.3495410193625712 61 54 44
-4.508092635765719 -2.4819071761304206 0.3433286600269705 58 51 41
-4.515276594740099 -2.4856202401679086 0.3361478887761882 56 49 39
-4.526570251211163 -2.490832866803771 0.3295745416449486 57 50 40
-4.539432524367429 -2.49662273893437 0.32319617827635727 59 52 41
-4.548799834854452 -2.501146184832063 0.31623458872400523 61 53 42
-4.585570479649029 -2.515664869497246 0.31335195639894464 59 51 40
-4.598473760501128 -2.5214950623751 0.30678820704380205 57 49 38
-4.607667632995381 -2.5259781632745333 0.2996277911124817 60 52 41
-4.618307341029323 -2.5309945512282264 0.29263785136101184 57 49 38
-4.624745006902992 -2.5344810306156953 0.28500155334969934 57 49 36
-4.6398571176446834 -2.5411438298024356 0.2785631484160478 58 50 37
-4.64065910834025 -2.5425777978129815 0.2700647707791294 58 50 37
-4.641009393018616 -2.5438476574014435 0.26149425545546245 58 50 37
-4.646161400909842 -2.5468780470051513 0.2535695881314818 58 50 37
-4.689235291996856 -2.5638159249421886 0.2507183474212733 58 50 37
-4.710453889352224 -2.572756488364856 0.24480798380892266 56 48 35
-4.740927851390934 -2.585105771828804 0.2400271165470016 59 49 37
-4.7529497026701435 -2.590691809774217 0.23274824311028386 57 47 35
-4.761556270943471 -2.595029017440501 0.22498457669007155 55 45 34
-4.7897218743750365 -2.6065655240793353 0.2196397606899807 52 42 33
-4.855492020994399 -2.6319569601814026 0.2188440643791243 50 41 34
-4.9188889417452355 -2.6565062596752833 0.21751779622183975 45 38 32
-4.847121543686804 -2.6312741796147012 0.1997026065141072 46 39 34
-4.84929888276702 -2.633277603012246 0.1908970414994795 47 42 38
-4.8011853903614305 -2.616725599933208 0.17620691010141099 49 45 42
-5.29508784724201 -2.800284924345476 0.22397346522959083 51 49 45
-5.281007926918557 -2.796392008006484 0.21249570785252447 53 52 48
-5.0468363624945 -2.711123204551866 0.17655093656512166 56 55 51
-5.031108264979435 -2.7065572856277633 0.16537021362022242 60 59 55
-4.866787745239313 -2.6469783423714137 0.1382220020144147 64 63 59
-4.901235646208262 -2.660950610129998 0.1327226863458777 70 70 66
-4.814156661664528 -2.6298952237194166 0.11442884615197046 74 75 70
-4.780629485294775 -2.618661643581076 0.10192397562076527 82 82 79
-4.7588812541027625 -2.611784677136641 0.09071714561579491 85 85 84
-4.7342328313878195 -2.6038212973554735 0.07929441496801037 90 88 89
-4.68398976566868 -2.5863359520070968 0.06546953350202567 95 94 95
-4.652944010625165 -2.5759661168552404 0.053646145430217396 99 99 99
-4.6276680497555605 -2.56772930230931 0.04246630080758107 101 101 101
-4.593891504249212 -2.5563164099143405 0.030591387427124528 105 105 105
-4.557787958770186 -2.544021387745959 0.018622021370805264 109 109 110
-4.5210843617929815 -2.5314863591093637 0.006722945877712716 112 112 114
-4.490654476457284 -2.5212750709230836 -0.004509810706268436 116 116 118
-4.477717672518318 -2.5175799809478656 -0.01416309124508952 118 118 119
-4.373243898638042 -2.4796887191449066 -0.031337585010030145 118 118 118
-4.272686221579769 -2.4432119746639263 -0.047824524955824566 122 122 122
-4.189959602328878 -2.413356699027684 -0.06254574855896944 124 124 124
-4.122601014510206 -2.3892139163047292 -0.07578785740107308 126 125 126
-4.051838213331205 -2.3637648226782293 -0.08904865761455893 128 126 127
-4.001077027955896 -2.345777574750983 -0.10058815252900832 129 127 128
-3.949780822751307 -2.3275661272399226 -0.11198793409042296 131 129 130
-3.898645508979119 -2.309391171944297 -0.12319621926405944 133 131 132
-3.8296267093326817 -2.284478149637022 -0.13544210011468327 135 134 135
-3.810424598017739 -2.278248018949001 -0.14414201803541504 138 138 138
-4.346941038191909 -2.482029205925381 -0.12535526284843534 140 140 140
-4.15173290460788 -2.4096622936107686 -0.14561126896402266 142 142 142
-4.1630953008829 -2.4150070170220914 -0.15298240221177217 143 143 144
-4.174060377488715 -2.42020837914565 -0.1604244479165704 146 146 148
-4.320097004746745 -2.476356427298718 -0.16044474229943606 147 147 149
-4.324918590351918 -2.4792845553908247 -0.16855644157797955 150 150 152
-4.358074486680507 -2.492915620992811 -0.17522993386232055 152 152 154
-4.364235294106896 -2.496363206451985 -0.18337620439625413 156 156 158
-4.367782783257444 -2.498826597242881 -0.19167742667696097 158 158 160
-4.30831890894108 -2.4774521291456804 -0.20290452864289632 160 160 162
-4.321858216727206 -2.483688345764072 -0.2106875522974917 162 163 165
-4.329282273826785 -2.4876153843179996 -0.21878688612551245 163 164 166
-4.333057366172962 -2.4901637060118014 -0.22706867804339315 166 167 169
-4.205304666238826 -2.442822525736485 -0.24046761067546873 167 167 170
-4.196377123487491 -2.440522649646412 -0.24901717798382983 168 167 172
-4.2815302197342655 -2.4739528298898237 -0.2542428263976514 170 169 174
-4.287699400625238 -2.477406767100741 -0.2624127467334102 170 169 174
-4.303663950676445 -2.4845899088321346 -0.27030535285303736 172 172 174
-4.317134539441421 -2.490832722648406 -0.27833764995000054 174 174 176
-4.309716531835309 -2.489128723510155 -0.28700438990175037 175 175 177
-3.7264864021765223 -2.268989177610462 -0.31788015987615237 176 176 178
-3.729503095530841 -2.272098063521373 -0.3325954800360377 177 177 179
-3.497098158186577 -2.1842929922619527 -0.34426393261444194 177 177 179
-3.735214861299099 -2.2762434519352817 -0.3473134636190669 178 178 180
-3.7373189536954072 -2.2780319116398537 -0.3547086907909196 179 179 181
-3.6649013005394164 -2.251297484404118 -0.36306881833782445 180 180 182
-3.6609994292164587 -2.2507708380161606 -0.3704183808538121 180 180 182
-3.6568748168870058 -2.2501576984466185 -0.3777614656390447 180 180 182
-3.6457974119209537 -2.2468768322892214 -0.3851449399458743 181 181 183
-3.7529323330354445 -2.288956634768801 -0.3918690240959394 182 182 184
-3.585823221718094 -2.2257780201241086 -0.39993446073479166 182 182 184
-3.9106170609984123 -2.3850512576169653 -0.6596702425134064 188 188 190
-3.888920319874064 -2.377595702143841 -0.6663593508355892 189 189 191
-3.8661907279294114 -2.3697242188428302 -0.6729062412321631 190 190 192
-4.769741371007788 -2.479120874125515 1.1967113395892197 146 132 113
-4.794459666358563 -2.488707032020142 1.1964726842311224 95 77 52
-4.786464366645349 -2.487040814283602 1.1857572985755471 112 93 62
-4.780345221134223 -2.486018390721759 1.1756543471777352 132 115 69
-4.790827901799069 -2.490717639446102 1.1707839465805652 115 95 49
-4.782043479987177 -2.488775778973475 1.1598475239614021 81 61 23
-4.734397316815325 -2.4734166083668176 1.1368429187270572 58 43 15
-4.952178998965326 -2.5497159180082134 1.1961329369114195 42 31 14
-4.936939074411571 -2.5455747276900875 1.182970006320405 25 20 10
-4.967338066732984 -2.5572111759596767 1.1838259387933672 15 14 10
-4.9524880715439075 -2.553203357065612 1.1707935368865823 19 17 14
-4.9598592634070755 -2.556884399374157 1.1645351252162284 18 14 13
-4.9637315339389545 -2.559357210593012 1.1571916733889573 18 14 13
-4.977065692526624 -2.565113024758742 1.1526645380269716 18 14 13
-4.985688329353555 -2.569241017358584 1.1466828043324266 15 13 10
-4.978576550549692 -2.5679116839367975 1.1360022206381066 14 13 9
-4.975972442475623 -2.5681458956938696 1.1266670013561235 16 15 11
-4.976307997512183 -2.5694016048806585 1.1181953406278806 14 13 9
-4.967689435579136 -2.5675442046080104 1.1071058128936893 13 9 8
-4.996102158327219 -2.5785711111797527 1.1067713776669619 13 9 8
-5.000970842970212 -2.5814126742467334 1.0995512766105435 16 12 11
-4.997145772003687 -2.581227967866563 1.089817121556261 14 12 10
-4.993323058270503 -2.581043308538355 1.0800894676504247 9 8 6
-4.984949229373925 -2.5792700664184567 1.0690784810025848 11 10 8
-4.902589643946638 -2.5516654339465 1.0372530001511795 12 11 9
-4.876958637970497 -2.543842096597628 1.0215745493938624 13 12 10
-4.875298016538161 -2.544387036239219 1.0126453119340497 11 9 8
-4.868364308356697 -2.5430878073260375 1.0022560860771697 12 10 11
-4.851909177575937 -2.538454091553074 0.989264755584239 13 10 10
-5.008864501627081 -2.5945426310766537 1.0237220682847739 15 11 10
-5.0210822902909955 -2.5999820113702077 1.0183291131362073 14 10 9
-5.016454638392095 -2.5995209649620263 1.0083400271981895 17 13 12
-5.027545313547783 -2.6045737707631376 1.002577721025133 16 15 11
-5.0557133091908595 -2.6156279618081433 1.001326308130402 16 15 11
-4.806560462294902 -2.5303891663060347 0.9180621844751229 12 10 11
-4.814067596658183 -2.5341484814096438 0.9116102157315313 14 12 13
-4.0606359867479815 -2.2729526796155355 0.6856724893088172 12 10 11
-4.059895839742656 -2.273648863298641 0.6782822095626331 11 9 10
-4.980954542522878 -2.6009772817316392 0.8941441947266795 9 7 8
-4.974423712202208 -2.5998331075351877 0.8837600162987149 10 8 9
-4.890014996791341 -2.571137828446693 0.8541810198775146 13 11 12
-4.904211691931365 -2.5773092316488015 0.8490355154235332 12 11 10
-4.9732648722424555 -2.602917720305877 0.8571824486141624 12 11 9
-5.08545423523058 -2.643846199384143 0.8755131371106177 15 14 12
-5.033441785688009 -2.6265930701412845 0.8540602429333397 19 17 16
-4.986994022545077 -2.6112923150667697 0.8341012482722943 29 25 24
-4.8137021102386965 -2.5509307335515077 0.784283764124379 37 33 33
-4.764940212900896 -2.534739533697056 0.7642943402632106 44 40 41
-4.823213124178212 -2.556582240204361 0.7694231838312825 43 41 41
-4.829409160621171 -2.5599250341803854 0.7622921203505485 45 43 42
-4.867746957744077 -2.574713557315045 0.7625200944833495 48 47 43
-4.899936922316212 -2.5873303012047275 0.7612090260644837 50 49 44
-4.951039939297865 -2.606703755351356 0.7640646142681209 52 51 47
-4.963474105704324 -2.6123094452216353 0.7580496617444001 55 51 48
-4.350719637052872 -2.395837065845356 0.6047371240992584 63 54 43
-4.271444236627231 -2.368547040129677 0.5795138794343015 67 58 40
-4.188338485471736 -2.339852415469641 0.5537191539233053 72 64 39
-4.129620016040649 -2.319846563058807 0.5334747446649812 74 64 38
-4.114842234902916 -2.3155464536760535 0.5228514383409529 73 62 40
-4.116812716042752 -2.3172403994251694 0.5158372290422213 75 64 42
-4.301295913399121 -2.3843614353830835 0.5473447897115223 71 60 38
-4.276343489179107 -2.3764429799907028 0.5343553792029867 67 55 33
-4.286520213603175 -2.3811227237562864 0.5287419650970814 67 55 33
-4.282988044551888 -2.380884342211922 0.5202634404830256 61 49 29
-4.296882636753626 -2.3869079889799645 0.5153510459467064 57 44 25
-4.266288372657814 -2.376940298550302 0.5013721092666705 58 50 32
-4.248030784686769 -2.3713986576066692 0.4899698909535063 61 53 41
-4.253428930482284 -2.374367053362688 0.4833352907780373 63 56 46
-4.246401025521574 -2.3728617447361176 0.47422259696405233 65 60 49
-4.265709083645105 -2.380848658268444 0.4702823806031792 60 57 46
-4.275084595272728 -2.3852620783740894 0.46434265482164827 58 54 45
-4.281699146886193 -2.3886839726760183 0.4578335674035835 61 54 48
-4.293219272098116 -2.3938816407833867 0.4522302681567495 60 53 47
-4.303290235698307 -2.398561641473988 0.4463073543974049 58 51 45
-4.319212800088607 -2.405363402278344 0.4414383273196435 60 53 47
-4.327221557549173 -2.409309358279433 0.43504092743128575 58 51 45
-4.337224475780491 -2.4139819630427715 0.42897577289409317 61 54 48
-4.351194819793898 -2.4200976132625183 0.4235914742275092 60 53 47
-4.365291194717079 -2.4262662322489996 0.4181751725715175 59 52 46
-4.376598918496778 -2.431430433774153 0.41220597191391395 58 51 44
-4.383772532835574 -2.4350998410756817 0.4054605159021498 58 51 43
-4.397173240432199 -2.4410355476917567 0.39977346853106766 58 51 43
-4.408380546509252 -2.4461809874575673 0.3936533964039659 59 52 44
-4.445697750331494 -2.4608295399875786 0.3919664364838441 60 53 45
-4.447266138813955 -2.462484861827685 0.3840734801348177 60 53 45
-4.453175975213119 -2.4657229253350152 0.37689806258701986 58 51 43
-4.466841814216506 -2.471791108089554 0.37098535052492154 59 52 44
-4.481306079269676 -2.478157653743584 0.36514979430727534 59 52 44
-4.4906933518241114 -2.4826792332954897 0.3584305184968928 61 54 45
-4.503100174902924 -2.4883085640865907 0.3521581822140797 61 54 44
-4.516434537850863 -2.4942834269190843 0.3459835985705587 60 54 40
-4.521074522952348 -2.497086813042281 0.33838563806755073 60 53 41
-4.5269775863450405 -2.500355312924335 0.3309615314837372 59 52 43
-4.544239945245151 -2.5077855727027303 0.32526020836397496 60 52 43
-4.557383648592221 -2.5137161644826707 0.31886424037725336 60 52 40
-4.5709073416191295 -2.5197930621302866 0.312472581085095 60 52 39
-4.583202488565656 -2.5254266041805833 0.30584379166587095 58 51 35
-4.601742833155174 -2.5333587051652966 0.300083351204525 59 53 37
-4.623933806361783 -2.542640972642757 0.29478126560141693 56 50 34
-4.63683054193768 -2.5485193295319624 0.28806007859475746 57 49 36
-4.647588854435596 -2.553618374314407 0.2809833319945285 58 50 37
-4.647240176894885 -2.5546368706227396 0.2723065347940622 56 48 35
-4.6502640107140625 -2.5568977489993303 0.2640902210647913 58 49 36
-4.65376047337558 -2.559335090778837 0.25592072878510463 59 49 36
-4.661624374114729 -2.5633849635875032 0.2483202338393541 59 50 36
-4.715654731768984 -2.5844685211278025 0.24682272419334317 59 50 35
-4.734449433453492 -2.592573052193851 0.24050468694813354 58 49 34
-4.801801325394761 -2.618621140354339 0.24039665870692395 55 47 32
-4.773767511489519 -2.6094503862332923 0.22786799490427145 54 45 32
-4.804974639615846 -2.622174924069224 0.2228877039557593 53 43 32
-4.905144177202167 -2.6604340160195514 0.22634662904252423 45 38 30
-4.934757725018499 -2.6726161847082084 0.2208125815076878 43 38 32
-4.840165090842936 -2.63879337290533 0.20019507845565299 46 41 36
-4.8534840948151725 -2.644934967896969 0.19272139666159616 49 44 40
-5.10474419271524 -2.7393566900399184 0.21302468461388147 51 46 43
-5.2744000010011005 -2.803605084667008 0.22302492142038077 54 50 47
-5.261893544269979 -2.8002689487950168 0.21175434423984463 58 54 51
-5.045202981156529 -2.7210332040966687 0.1777301169385157 60 58 54
-5.029476337510984 -2.7164411212404653 0.16654409367821477 64 64 59
-4.852389911946122 -2.6517888513700125 0.13797323706546205 66 67 62
-4.867854469732218 -2.658761406285898 0.13048727258492554 71 72 67
-4.80720532884763 -2.637378627691851 0.11498770448489437 78 79 74
-4.775603199280719 -2.6267991978999543 0.10268026472426017 83 82 78
-4.754669563016769 -2.6201863683486133 0.09155497343006958 88 87 83
-4.705080360261815 -2.602865552757742 0.07765845300738428 92 91 90
-4.679719096254603 -2.5945736613387567 0.0662896786271232 98 97 98
-4.655907436070867 -2.5868499188444556 0.055152813640076404 101 101 101
-4.619671392432714 -2.5744680087988017 0.04293053761801591 105 105 105
-4.586062554155169 -2.563053122690674 0.031072989922678707 109 109 109
-4.546068367087389 -2.5492313776494977 0.018754324803868294 111 111 113
-4.5127444066530655 -2.537891401823903 0.007161642286252601 115 115 117
-4.338342225559408 -2.475830851341314 -0.03310222694372533 121 121 123
-4.257015495237334 -2.446374977363223 -0.047995958255813154 123 123 124
-4.17815052518435 -2.4178064607295195 -0.06240671522539598 125 125 125
-4.1018308369643295 -2.390158459191948 -0.07634107283461367 127 126 127
-4.0540992139104866 -2.373237506454588 -0.08784392549589704 127 125 126
-3.9864538388722948 -2.348792312503427 -0.10064897911503567 132 130 131
-3.938402370949604 -2.331701571373535 -0.11180455731803107 133 131 132
-3.9103685039867937 -2.322139283505768 -0.12138761775268014 136 134 135
-4.182226220056687 -2.4268323286448243 -0.11846139968655256 138 136 137
-4.187986505004983 -2.4300833744628134 -0.12616940707546342 140 139 139
-4.198232245146761 -2.435034413282109 -0.13362323965224288 141 141 141
-4.16125974671091 -2.4221228420524854 -0.1440022465543992 144 144 144
-4.171562151366266 -2.427095598644013 -0.15145468776347393 146 146 146
-4.1841931424738945 -2.432956577059657 -0.15881794595995447 147 147 146
-4.312604677066224 -2.4827231358834876 -0.15980551055070202 150 150 150
-4.305838104741962 -2.4812670440939675 -0.16852850365282768 151 151 152
-4.358634575247674 -2.502421118467055 -0.17414486544240726 154 154 156
-4.364397881149153 -2.5057347082266137 -0.1823146453890081 157 157 159
-4.368720122609057 -2.508504254435886 -0.1905820477464747 158 158 161
-4.309150562313005 -2.48697410412044 -0.20183327958884778 161 160 165
-4.3205868180504545 -2.492441836596626 -0.2097123486990149 162 161 166
-4.330405658183062 -2.497300081022485 -0.21770951238340364 165 164 169
-4.3377110586994565 -2.5012061742388836 -0.22585245537313214 165 164 169
-4.345409512625764 -2.505266674756321 -0.23401405083268212 168 167 172
-4.192453051915396 -2.4480261493805053 -0.24817501023665156 169 168 173
-4.197626517797622 -2.451092455921857 -0.25619965487474516 170 170 172
-4.29044459093322 -2.4876503871494213 -0.26132085792219273 172 172 174
-4.30056431778981 -2.4926363070625577 -0.2694035866900998 173 173 175
-4.309587501046104 -2.497208622129187 -0.277563398531402 174 174 176
-4.311919382509989 -2.499224690349152 -0.2859501397206172 176 176 178
-3.7245949795004862 -2.275359545683908 -0.30968815976407205 176 176 178
-3.7226329029313607 -2.2755882067918423 -0.3171145043592759 176 176 178
-3.7253238968188893 -2.2776014946013112 -0.3244359797174637 176 176 178
-3.7302637707458435 -2.2814647186407355 -0.3391356587883268 179 179 181
-3.7327424636027566 -2.283402761215685 -0.3465084161741516 179 179 181
-3.7352268262577897 -2.285345035627305 -0.3538965238292342 179 179 181
-3.737036809873068 -2.287029859686088 -0.36130885314453876 180 180 182
-3.7383796407704986 -2.288536527503971 -0.36873934230786554 180 180 182
-3.7558414307355235 -2.2962554223532434 -0.3760322785886925 180 180 182
-3.748932143072493 -2.2945874465590053 -0.38357616873901623 181 181 183
-3.743416888710761 -2.29345468598767 -0.3910927882065225 181 181 183
-3.8896641687420552 -2.3854202893907503 -0.6577018964331988 188 188 190
-3.8699096069135366 -2.3786850093445784 -0.6644770082901847 189 189 191
-3.848347119987173 -2.3712265234966283 -0.6710686707982259 190 190 192
-5.159071824132747 -2.618502713604016 1.358501557976245 197 197 201
-5.004458402679044 -2.5674408149044528 1.2908581179077778 197 197 196
-4.976917525561305 -2.5590577726685364 1.27346712218973 191 190 183
-4.780725497658133 -2.4923497640603562 1.2019875313055741 157 146 130
-4.8033206269366815 -2.5012544068026488 1.201057805710617 93 74 51
-4.79828379334003 -2.500603508517796 1.1912625834210988 107 86 58
-4.801556813245569 -2.5028299443875177 1.184106040546376 131 115 73
-4.839100176421146 -2.516937866492402 1.187717726041431 118 100 54
-4.805721560631206 -2.506463677795354 1.168996338244228 87 68 27
-4.772114585967868 -2.4958966029205767 1.1503060217316579 62 45 17
-4.749657505899022 -2.489187959453822 1.1351733187282873 45 34 14
-4.788207477141279 -2.5036704216627834 1.1389097295894923 28 22 11
-4.742713768626424 -2.4889469469522534 1.1167489744330639 18 15 11
-4.928912868934666 -2.554818887020226 1.1653815377298906 19 15 13
-4.928427857111876 -2.5557779389917257 1.1567778459743598 20 16 15
-4.932002185103858 -2.558151822707461 1.1493936977382022 20 16 15
-4.944005943382762 -2.563466569586007 1.1445203162342028 18 14 13
-4.966874660236863 -2.5725772403747453 1.1428430095421829 17 13 10
-4.965540000706784 -2.573251147385963 1.133901667875847 16 13 10
-4.962734604478512 -2.573411712744031 1.1245239842362047 18 15 12
-4.975146891299501 -2.5788899957960227 1.1196147728012495 18 15 12
-4.972083641102756 -2.578963056070135 1.110141878095559 13 9 8
-4.971592451832565 -2.579935643167997 1.1014187071509935 16 12 11
-4.973263526777269 -2.5816659705244476 1.0933143258134064 17 13 12
-4.958418628411514 -2.5776116769908217 1.0804593967749216 17 15 13
-4.9541729702891555 -2.577267454583701 1.0706700295534137 12 11 8
-4.949848557993594 -2.5768946365606222 1.0608656008101436 15 14 11
-4.943441454592835 -2.575789782448478 1.050481508855874 14 13 9
-4.927713848887857 -2.5714094285417044 1.0374993730126516 12 11 9
-4.858826997518049 -2.5483405653820217 1.0097501958749955 12 11 10
-4.903727331112805 -2.565257074591613 1.0137396654168476 14 12 13
-4.994315510357629 -2.598271168006644 1.0301530531187226 15 12 11
-5.009756790281684 -2.6048665220273968 1.0256938365393096 17 13 12
-5.009258947923986 -2.6058538319387106 1.0168408958125073 16 12 11
-5.0117912500831245 -2.6079101096759563 1.0088019612198762 19 15 14
-5.007387510314945 -2.607521597611175 0.9988840701737876 16 15 11
-5.007330610486031 -2.6086664493439478 0.990134684326555 15 14 12
-4.831118548554878 -2.5475917881395835 0.9346325523809463 14 12 12
-4.831095074847961 -2.5487111252153087 0.9261718550960323 14 12 13
-4.8268280950002485 -2.548330591673982 0.9165926097932003 12 10 11
-4.834345406089365 -2.5521192791505936 0.9100891966337811 15 13 14
-4.843660252055199 -2.556548715970101 0.9040190407089608 13 11 12
-4.044716349002027 -2.2745963950820767 0.690163282135432 13 11 12
-4.0402617861261305 -2.2739738160042196 0.6818522452752355 14 12 13
-4.075978858337745 -2.2876017635959274 0.6837414695163261 11 9 10
-4.106638988544985 -2.2994512283316038 0.6842310235548505 10 8 9
-4.9921759936061765 -2.614983164722742 0.898620028172084 9 7 8
-4.99466020765028 -2.617037852388883 0.8904529051667622 8 6 7
-4.986343832969985 -2.615253178789914 0.8796029305273028 10 8 9
-4.9859144466564445 -2.6162726076449325 0.8707086301932352 10 9 8
-4.969293658556127 -2.611526787532563 0.8578642151477285 10 9 7
-5.034496762587033 -2.6359314304400696 0.8648652870086488 12 11 9
-5.030022841113296 -2.6355220395450383 0.8548994541664916 15 13 11
-4.9833319453361575 -2.6200490867303596 0.8348698224860143 23 19 18
-4.823468186993834 -2.5641519542947178 0.7881814273208043 28 24 24
-4.808853361474307 -2.5600721653886573 0.7761879943788452 34 30 32
-4.787430932469718 -2.553553234461784 0.7626474800682156 35 31 33
-4.8348654739586125 -2.571654872933822 0.7651350611050529 35 31 32
-4.8775373606676276 -2.588074195346935 0.7663593935832449 38 35 34
-4.923624659700362 -2.605736891486484 0.768212633023099 40 37 34
-4.973798719824157 -2.6248858887917326 0.7708294641917859 43 41 37
-5.0039685153032805 -2.6368851461757448 0.7687672930915102 49 44 41
-4.335676011595744 -2.399316188738794 0.6028117170558743 62 54 40
-4.242594046548876 -2.3669133312969266 0.5745496245276688 69 60 40
-4.098755966696626 -2.316222351872837 0.5355203498421532 74 66 40
-4.1176742858094935 -2.3240144114221573 0.5322194948675346 76 66 41
-4.106270127326959 -2.3209012131184474 0.522333620547668 74 63 41
-4.105687249283614 -2.3216812236631315 0.5147871596463253 73 62 40
-4.282545096170269 -2.3864126643426276 0.5447539110975442 68 57 35
-4.26918874158231 -2.3826275772892815 0.5342176266053331 66 55 33
-4.26863404914581 -2.383456869625935 0.5263837941005647 64 52 30
-4.292834147008368 -2.3932254627113627 0.5236527980944814 58 47 26
-4.310085776047227 -2.400495313608607 0.5194111500855251 57 46 26
