ply
format ascii 1.0
element vertex 703
property float x
property float y
property float z
property uchar diffuse_red
property uchar diffuse_green
property uchar diffuse_blue
end_header
-4.883623417875228 -1.203142345081075 0.5665973455186744 9 7 6
-4.883083076001058 -1.2089219290104611 0.5598982453169461 9 7 8
-4.888816625206331 -1.2113651441014195 0.5529675063117867 8 7 6
-4.904905922877019 -1.2083247150096268 0.5456257948174106 8 7 5
-4.941791904233584 -1.1943009608356054 0.5374231918757733 8 7 5
-4.933544608401462 -1.204232123141331 0.5309436472915061 11 10 8
-4.924577094813069 -1.214529037182061 0.5245117972672964 16 15 13
-4.918955765295282 -1.2230475031105545 0.5179551712364958 11 10 8
-4.944953194155559 -1.2149378570424902 0.5100032225399478 8 7 5
-4.918399303331699 -1.2344532271558155 0.5043842906422358 8 7 5
-4.876472916866595 -1.2619605581093174 0.4995567077067036 11 10 8
-4.843406541557348 -1.2847517731783342 0.4944074892584198 11 9 9
-4.826233302433461 -1.2991899675049914 0.4885506954672476 9 7 8
-4.879379718609302 -1.2770177519394221 0.4791377495556066 9 7 8
-4.883266431898075 -1.2805338123547472 0.47216420920669644 9 7 8
-4.890600705467527 -1.282276361330305 0.4649901579780389 8 6 7
-4.889781137632115 -1.2882529533485039 0.458242009611201 10 8 9
-4.898988858939235 -1.2890597948432068 0.45092469366050736 9 7 8
-4.888703819222653 -1.2999224707246297 0.4447064970383361 9 7 8
-4.830455564292343 -1.335397591979591 0.44135252027617167 7 5 6
-4.823292966193717 -1.3445693093302253 0.43505633681697486 7 5 6
-4.989581683712909 -1.310611666605673 0.3622767565826468 8 6 7
-4.990119999135114 -1.316055603562216 0.3552467076396848 9 7 8
-4.981506611978087 -1.3260829087540371 0.3489012299383496 8 6 7
-4.977241666041137 -1.3339242227742767 0.3422405077601538 9 7 9
-4.9216162922649405 -1.3673403777212434 0.33960219918152124 12 10 13
-5.0586705464660975 -1.304884821901286 0.32178467433772817 15 13 15
-4.94261690914705 -1.3682378249497797 0.3240664996136142 20 18 19
-5.002893694899308 -1.3441016577014757 0.3121541146383069 30 28 29
-4.6803383151006335 -1.5090726558581231 0.33208792615595484 47 46 45
-4.702483784229543 -1.503565363456538 0.3236005278785732 62 59 55
-4.726740039935495 -1.4970738323304293 0.31486606773854686 76 72 68
-4.700011133118331 -1.51563610482007 0.3105334512406974 74 71 66
-4.86316311111204 -1.446880746608796 0.2824809133262689 81 73 60
-4.203390216207003 -1.7835283449354369 0.32422521270909854 110 89 56
-4.169538645447545 -1.8047904893296698 0.32148643343416516 119 98 60
-4.146513817019088 -1.8207568181690266 0.31778309214448175 122 100 61
-4.106601015397963 -1.8448029605468639 0.31580550424762177 126 106 66
-4.124672693533716 -1.8409194994170877 0.3081322609376731 115 96 58
-4.13241307249169 -1.8420291190814004 0.30145332295358074 91 73 37
-4.1321979348164675 -1.8469615460438011 0.29556703517575644 79 62 30
-4.123317313842581 -1.8560284687747715 0.29058018409538855 68 55 27
-4.114091175414378 -1.865242946039925 0.28565035991969556 62 51 27
-4.115417701073973 -1.869431976867965 0.27961363870537714 58 50 31
-4.123778719390634 -1.8702968410350458 0.27280744224110176 61 52 40
-4.129593549743291 -1.87238632889408 0.2662535630017906 58 51 41
-4.156646888285903 -1.864485117832293 0.25732068968742405 58 52 42
-4.163305197366567 -1.8662347923970277 0.2506026424061263 54 50 39
-4.177382156571812 -1.8645240408093486 0.24301771017201723 59 52 42
-4.196629944765946 -1.8604295453600201 0.23479407233673566 63 56 46
-4.205446017652957 -1.8612498413270278 0.22772955230432013 64 56 45
-4.191861939753984 -1.8725210613601193 0.22327962148213354 63 55 44
-4.190903784749851 -1.8779014796574744 0.2173560931903218 65 57 46
-4.162686697685338 -1.8959107316293646 0.21472314081616295 62 55 43
-4.156316612069413 -1.9037633597218386 0.2094958471700321 61 55 41
-4.225818896438588 -1.87662906251087 0.1949088203818392 62 54 41
-4.210682750319448 -1.8885764989566856 0.19069866208437003 63 53 41
-4.215352241408418 -1.8914078296055927 0.18402464637584415 66 57 43
-4.231865710376186 -1.8888336426279975 0.1758209322761073 65 56 41
-4.254487539285119 -1.8835123221292007 0.16677852690754813 65 55 42
-4.304766270124475 -1.8656539088375204 0.15405971068620294 65 56 43
-4.303166123839223 -1.8714743743205886 0.14803920577944618 64 56 43
-4.298103649686849 -1.8788630495699024 0.14248052471167538 65 57 44
-4.300772719014536 -1.8827499077533993 0.13589048303070062 61 53 40
-4.300150799927539 -1.8881295913152463 0.1297366935852784 61 53 40
-4.299029432662266 -1.8937357919591227 0.12364915683918265 62 54 41
-4.308954912513099 -1.8943889748977416 0.11602636814336797 62 54 41
-4.325431170262769 -1.892138146263369 0.10745264893886808 62 54 41
-4.348146092137175 -1.887145091319164 0.0979446518404361 62 54 41
-4.352150752568624 -1.890533674929432 0.09104597516395296 64 56 41
-4.370119491244817 -1.8877368372983132 0.08211415719204207 63 54 39
-4.381369759157076 -1.887959029484156 0.07410784737340381 62 53 38
-4.389243805047107 -1.889701342174415 0.06656299524604448 65 56 41
-4.396973301307478 -1.8915288981594052 0.05901323578145323 65 56 41
-4.401880897407991 -1.8946172781620847 0.05186105741667291 64 55 40
-4.431087040120796 -1.8870749943525071 0.04100904363555613 62 53 38
-4.413841210219445 -1.8999011155548882 0.0371743208159081 59 50 34
-4.418526909392786 -1.903133109597829 0.029999001736869868 63 54 36
-4.411185935468432 -1.911606879701479 0.02467929968830118 61 54 35
-4.448138893896962 -1.900865807723596 0.012414708632431548 56 50 31
-4.475567463408398 -1.8943314282457833 0.0015517228394110738 53 46 29
-4.482383884040895 -1.8967517532178775 -0.006095480103850415 54 44 32
-4.482477179275502 -1.9020826022979163 -0.01268123200611937 59 47 37
-4.551620039290179 -1.8778034730222082 -0.03051408967897462 54 44 33
-4.552245057312945 -1.882994462581257 -0.03729429730762357 55 46 35
-4.559867647797548 -1.8852056660979029 -0.045239903432451545 51 43 32
-4.565830038225221 -1.888144457302931 -0.052934243282700466 50 42 32
-4.5699390962172215 -1.8918870148704592 -0.06033773446729063 49 40 31
-4.576557089706471 -1.894581309407092 -0.06818368676027986 52 43 34
-4.58337429660817 -1.8972106139694656 -0.07608709005875691 47 38 29
-4.589650940103622 -1.9000869087859036 -0.08392102051326655 49 40 31
-4.598723871412739 -1.9018082046468034 -0.0922643871745139 52 43 34
-4.5378953116213125 -1.932803218560411 -0.08836358278161938 51 42 33
-4.6234095988548365 -1.902596465528135 -0.11020000077966308 47 38 29
-4.6417971179894115 -1.900524163161378 -0.12030610382392126 43 37 25
-4.6657430967368985 -1.8961921107285393 -0.1314690965550518 38 35 25
-4.97093552782359 -1.775549358917611 -0.19369593346661107 33 28 24
-4.7466983889947745 -1.8798030157712629 -0.16707537250506377 35 31 28
-4.673918586222255 -1.9154034156353763 -0.16059226689116834 39 35 32
-4.59205388848994 -1.9545538918829495 -0.15220641941714286 41 40 35
-4.956009996496222 -1.8116574950908828 -0.22760841403164855 46 45 40
-4.843344249633496 -1.8634826165976606 -0.21355285278171565 50 49 44
-5.067431860746714 -1.790747801328893 -0.2786298858341232 65 65 61
-5.04782880098367 -1.8047749771584531 -0.28231336516022765 71 71 69
-4.702601560756997 -1.949295399786565 -0.2217741333620169 81 79 80
-4.688106148577821 -1.960814002783692 -0.22590016920367972 89 87 88
-4.800958835305996 -1.9215511987012874 -0.2554526390467313 96 94 95
-4.810568131291304 -1.9235813940572606 -0.26454265196216364 103 102 102
-4.821369082992493 -1.9251661074826163 -0.2739069302751398 107 107 107
-4.824975578851282 -1.929621981808274 -0.2818375650787144 111 111 111
-4.823616889363952 -1.936045667949993 -0.2887620332893426 115 115 115
-4.822257977841584 -1.9424702166260963 -0.29568740405282457 117 117 117
-4.822500106117017 -1.948268826303861 -0.3029477229685096 120 120 120
-4.799990330473364 -1.9629511429754802 -0.30543433503923323 121 121 121
-3.969234484658555 -2.2969479478193913 -0.14289746097814415 127 127 127
-3.643562389854166 -2.436819158140789 -0.09011454798588603 133 133 133
-3.635977050668399 -2.444246873521274 -0.09398653634130749 135 135 135
-3.63664985108146 -2.4485053779312302 -0.09965881773764695 137 137 137
-3.6784195406052405 -2.446267583116737 -0.1256375521690909 142 142 142
-3.689097240823891 -2.44681836860496 -0.1336522172967266 145 145 145
-3.695851835627806 -2.4488728294893725 -0.14080932746720065 147 147 148
-3.7071137239547705 -2.4492571670811967 -0.14902199041129682 150 150 152
-4.6142975285045615 -2.1149426103644133 -0.36371386078045576 151 151 153
-4.630957279152883 -2.1144474265379576 -0.37456153703641215 155 155 157
-4.643206750074447 -2.1156331728419557 -0.38443357765734043 156 156 158
-3.9478191344715414 -2.378696566684391 -0.22818352640324546 156 156 158
-4.117914733941255 -2.3311466691150624 -0.2869519278903847 163 163 165
-4.1254925454717135 -2.3335160009676237 -0.2950601985695651 164 164 166
-4.12888208957299 -2.337431694792998 -0.3021808386962783 164 164 166
-3.8091941642126277 -2.4633573538641267 -0.2364514049973946 167 166 171
-3.773216927066554 -2.485843509706019 -0.23922622389713577 170 170 173
-3.7784609636329787 -2.4887088323158646 -0.24633682070527863 171 171 173
-3.782508760895357 -2.4920168721534135 -0.2531666186683844 172 172 174
-3.7890884214099527 -2.4944375922697444 -0.2606515339772345 173 173 175
-3.78926342011181 -2.499147239879927 -0.26653349593562514 174 174 176
-4.325681603114113 -2.325323882445965 -0.42266686584631674 176 176 178
-4.33471816665505 -2.3275994469169015 -0.43166330665672437 178 178 180
-4.326682953839235 -2.3358475228603113 -0.43622961603902244 179 179 181
-4.3452947278347684 -2.334829774522673 -0.44778000482054336 179 179 181
-4.344358633013412 -2.3406229342535845 -0.4542236356990781 178 180 179
-4.359998424134937 -2.3407037491256433 -0.4650747571444378 180 182 181
-4.363800354847784 -2.344892530933742 -0.47281299860631465 176 178 177
-4.3653968923041475 -2.3498491831974744 -0.47997443782456706 174 176 176
-4.366851948644353 -2.3548617527969853 -0.48710701740315576 177 178 180
-4.363084969523499 -2.361656321185455 -0.4928295291303113 175 176 178
-4.355276249346857 -2.369814135677525 -0.4974411273892487 173 174 176
-4.344316750219343 -2.3790197947077543 -0.5011684893630893 174 175 178
-4.3248207820990885 -2.3910723460317684 -0.5025098929694982 178 179 183
-4.314125001391913 -2.400133327042779 -0.5062415645917475 181 182 185
-4.3063400253271675 -2.4082004856754002 -0.5107585809241868 183 183 186
-4.294093610273311 -2.4177359024041154 -0.5140046129277902 184 184 186
-4.28060370096917 -2.4276570903878394 -0.5168676925036189 184 184 186
-4.267918404704393 -2.437283428723564 -0.5199232274834057 185 185 187
-4.267566403776582 -2.4428266423611165 -0.5264626420417859 184 185 187
-2.500482618623069 -2.3694664921979665 0.7865306261267944 199 199 202
-4.932468766095163 -0.9775760682993793 0.8250193064131621 199 199 202
-4.904852702269227 -0.9987937564800324 0.8179661708013664 199 199 201
-4.815817742665866 -1.0550488344600275 0.8100807157168894 199 199 201
-4.846711441542239 -1.042722558189705 0.8040235645781222 197 199 197
-4.8540819048255575 -1.043855721259615 0.7975984549462483 195 195 193
-4.8626226140676465 -1.0443430914743028 0.7911625641540796 182 182 175
-4.8720698059834895 -1.0443380086761958 0.7847088071805648 153 147 131
-4.892498653949777 -1.0381404089467487 0.7783156778913658 101 87 63
-4.879620743449195 -1.0508073721644984 0.7716372073985067 98 79 49
-4.858788571435086 -1.0679358036547582 0.7649440529505358 116 94 60
-4.842393877672673 -1.0825256096492701 0.7583198286110842 131 111 68
-4.824990364227041 -1.097650560061075 0.7517312614283946 140 120 74
-4.812474436566083 -1.1100012481130497 0.7451918891533591 127 107 63
-4.83477544905495 -1.102843824586169 0.7386918861910912 97 76 36
-4.845472617617817 -1.102219065702687 0.7321409026954009 67 48 12
-4.81657590892597 -1.1236939774179713 0.7256490340002049 51 37 11
-4.803529673485508 -1.1362908614581286 0.7191713299960074 38 27 13
-4.790543151193846 -1.1488300382682008 0.7127233367813814 27 19 9
-4.838899279035334 -1.1273440612855699 0.7059224213245308 14 9 4
-4.8642761774008045 -1.1186775167883634 0.6991639147956077 11 9 7
-4.846394214301808 -1.1339533507329504 0.6927180673304372 10 8 6
-4.8555740890671295 -1.1342817515890111 0.6860394439228952 13 9 8
-4.863634888330072 -1.1352488495758397 0.6793452853844284 13 9 8
-4.867241490925576 -1.1386816956277905 0.6726827156411335 12 8 7
-4.872785021163693 -1.1410647197595911 0.6659790029126138 10 8 7
-5.039815503693785 -1.0551713330638128 0.6567617652027498 11 10 8
-4.963947120993723 -1.102183065213594 0.6511722900848183 13 10 8
-4.890213095602515 -1.1478722870399798 0.6457400099548336 14 10 9
-4.8218848453629155 -1.1904677294676191 0.6403931721831397 16 14 12
-4.763427784056961 -1.22756462500089 0.6350179738194717 11 9 7
-4.704853507834956 -1.2646020062989816 0.6297956782107403 12 10 10
-4.681130417934106 -1.2826873560771803 0.6239095706342508 10 8 9
-4.663462881312821 -1.2974597204785643 0.617932550418836 10 8 9
-4.705685687716986 -1.2799706187939375 0.6104397240554504 9 7 8
-4.6708110747692 -1.3039784541934383 0.6049392353801286 8 6 7
-4.8856793112478165 -1.1940709808520154 0.5923659589953472 11 10 8
-4.882799013277536 -1.2010936321227985 0.5857508659459052 10 9 7
-4.880508104201075 -1.207798993692438 0.5791206115139069 10 9 7
-4.878277640525135 -1.2144707344161298 0.5724901234627864 8 7 5
-4.878154690602148 -1.2200208779265906 0.5657895856067789 9 7 6
-4.889706409724532 -1.2193810516618246 0.5586726808860194 8 7 5
-4.9062320961972645 -1.2161367498363649 0.5513383526255449 8 7 5
-4.96710881343521 -1.1895010530227212 0.5422710085693878 8 7 5
-4.966037079277161 -1.195662036418848 0.5354725440413817 9 8 6
-4.95974483690617 -1.2045709619092178 0.5288847107131465 14 12 10
-4.907456418298933 -1.2376193158129185 0.5242404286478601 13 10 9
-4.925962601388191 -1.233464854467577 0.5166644388076498 9 8 6
-4.910912097872068 -1.2468994884461786 0.5105331662347954 11 10 8
-4.895965939234088 -1.2602503634607265 0.5044329315482612 12 11 9
-4.871988245739253 -1.278274459062653 0.49879579976065425 12 11 9
-4.85340498001128 -1.2934468778468748 0.49295591842360276 11 9 8
-4.885793242300495 -1.2821551657788006 0.4846121151354317 6 4 5
-4.883930307839951 -1.2886585919980291 0.47793606251484433 8 6 7
-4.892132950146043 -1.28996498096715 0.47073015564964704 9 7 8
-4.8912994675839485 -1.2959481636752117 0.4639861224289099 10 8 9
-4.908783108346408 -1.2925168095108075 0.4562254036726152 10 8 9
-4.895252584900144 -1.3050369578210452 0.45017265815590757 8 6 7
-4.8260414749316505 -1.3460322749230835 0.4473855444893098 7 5 6
-4.8201196718958625 -1.3545524701631986 0.4410195974455935 6 4 5
-5.013296496770009 -1.30736753409191 0.3666055305177416 8 6 7
-5.08124785911688 -1.279150359785638 0.35463378971930526 9 7 8
-5.005174136290057 -1.322899535907966 0.35317294203912275 9 7 8
-4.9630047826132735 -1.3496163269693315 0.34934909829279714 11 9 10
-4.945618390486098 -1.3639412943705378 0.34372673944374377 11 9 10
-5.05887220292696 -1.3135286954348357 0.3279094252617414 15 13 14
-5.026286309038139 -1.33544011592927 0.32340661637127477 19 17 18
-5.020051101201489 -1.3442906505283956 0.3168511611852438 29 26 27
-4.69662818027326 -1.50916663971809 0.3364592502454904 43 40 38
-4.7214298435729996 -1.5024099420661678 0.32775945179445487 60 56 53
-4.751695120897821 -1.4930365684358535 0.31852232446442397 72 69 64
-4.732727335153211 -1.5077890419399935 0.31345872695623545 75 71 67
-4.923453453362888 -1.4259670638852218 0.2830614880540314 79 72 62
-4.248237003608432 -1.7691699683202595 0.32523473765324606 105 86 56
-4.189393810569588 -1.8024678013084077 0.3247676283694412 119 97 59
-4.171049074125179 -1.8161670711224904 0.32056544911476115 123 101 62
-4.105860831225199 -1.8522961384784171 0.3209761120777861 130 110 70
-4.125451678520126 -1.8477142812611258 0.31318088869239813 125 106 67
-4.134876324379847 -1.8480328244222237 0.30634694156795295 101 82 46
-4.141387531246717 -1.8497633012885175 0.29977922089950004 85 68 35
-4.132246629353887 -1.8589485444898735 0.2948015185483648 72 59 30
-4.11638798952305 -1.8713007051868034 0.29054608574925167 64 53 29
-4.120505248280359 -1.8741739888130584 0.28421835111561666 59 49 29
-4.1279966188707125 -1.8754679670203966 0.2775139815515495 60 51 35
-4.1507630986472535 -1.8695930755148051 0.2691278992269315 62 55 43
-4.159383393164079 -1.870414456996793 0.26222928587461847 61 55 44
-4.176150456837639 -1.867442791110909 0.25439662854557543 56 50 39
-4.1937853167792705 -1.864106777972526 0.24641595957595208 59 52 42
-4.215363633757945 -1.8589757955715913 0.23793297056698126 63 56 46
-4.2125625530182695 -1.865232887424782 0.23219954467947512 64 56 46
-4.207288505823209 -1.8726340013398963 0.22675865179784682 64 55 45
-4.202350774135736 -1.8798708270983981 0.2212886163243113 64 56 45
-4.184578027177214 -1.8930241578890845 0.2173626790490779 64 56 44
-4.176055875897928 -1.901881021857399 0.2123632939064024 64 56 44
-4.167561080617696 -1.9107092410983522 0.20738021869812084 61 54 41
-4.156874897932953 -1.9205254693419875 0.20268784692870878 63 56 41
-4.216344923675859 -1.8982564823945258 0.1892444387267216 64 56 42
-4.230840475403162 -1.896630024491294 0.18132062637676571 65 56 43
-4.248140537423592 -1.8937644863094787 0.17299377316979858 65 56 43
-4.256905319596456 -1.8948134982184013 0.16571809929310555 63 55 42
-4.347239976005637 -1.8589766874650877 0.14775511024104837 64 56 41
-4.328004941456318 -1.8728029613783275 0.14400646253906713 63 55 42
-4.278285263642896 -1.900313024947864 0.14437580202215972 61 53 41
-4.291829182670531 -1.8993037197751192 0.1363482938217193 63 55 43
-4.29377160754364 -1.9035252657606638 0.1298595621748322 62 54 41
-4.314232545748937 -1.8994810469728982 0.12081215203625795 60 52 39
-4.3281676893903525 -1.8983951424277277 0.11261076191870689 61 53 40
-4.353742033613611 -1.892171119600237 0.10273145307602327 63 54 40
-4.360821827042564 -1.8942084885317045 0.09539978285480055 64 56 40
-4.376877755279272 -1.892296367783295 0.08675818847319783 62 55 39
-4.388945482025098 -1.892183527503973 0.07864424018747229 62 53 38
-4.392918148477339 -1.895662862367026 0.07167452784737693 63 54 39
-4.400283128099449 -1.8976664445575733 0.06418914951134003 61 53 36
-4.417780748927608 -1.8952564360003 0.05517035712134244 62 54 37
-4.428484232258565 -1.8958554748140084 0.047119059864760615 62 52 39
-4.41806309452994 -1.905678138356416 0.04223758425962876 61 52 36
-4.427602177593038 -1.9068147160488063 0.0343254028024258 64 56 38
-4.416311016387439 -1.9169961212712934 0.029600314166924102 64 56 38
-4.407221289173397 -1.9262043516375376 0.02455951868825057 59 51 35
-4.394514199821164 -1.9369530646647104 0.020109149941631488 57 49 34
-4.3806720128368974 -1.9481635054567552 0.01587053299349539 57 47 35
-4.480062081974761 -1.9108399549526136 -0.0064671069864477015 56 47 36
-4.550073322288364 -1.8863009297844178 -0.02434363401613071 53 44 34
-4.560022451532732 -1.887517497519247 -0.03263398569401765 53 45 34
-4.569324658555005 -1.8890356431831288 -0.040850628421782 52 46 33
-4.573994217945102 -1.8925420572092317 -0.04832997684295104 46 41 27
-4.575108794646837 -1.8975652457995458 -0.05523257220075273 50 42 32
-4.581846948529418 -1.9002248168784823 -0.06309122284122282 51 42 34
-4.58343843768139 -1.9050666574884407 -0.07009824640645901 49 40 30
-4.588515590042722 -1.9084550647879155 -0.07771205218348953 51 42 31
-4.596356549903636 -1.9107038945993962 -0.08582270061037378 53 45 33
-4.55878841247728 -1.9318998303441925 -0.08604403824940032 52 44 31
-4.617614883123284 -1.9129498645834917 -0.10310462527512954 46 39 27
-4.6307445539216205 -1.9130792804733807 -0.1122408676827642 42 37 25
-4.653303461016323 -1.9093461998274424 -0.12310320633850158 39 35 26
-4.861008891520472 -1.8293692795626437 -0.1673663008504831 33 28 23
-4.7989273790544775 -1.8665450734494373 -0.17035955399456038 35 30 27
-4.728430340421509 -1.9011519388477627 -0.16445797618570368 38 34 31
-4.6426492532298544 -1.9418249641302863 -0.155520597482947 40 39 34
-4.97286999616706 -1.8132954883509678 -0.22420775644487878 44 43 38
-4.859550703943351 -1.8652171203095067 -0.21019034064758868 49 48 43
-5.01624883155439 -1.8138884724124757 -0.25459499039721156 60 59 55
-5.022327854689103 -1.817527548556817 -0.2632002961416733 65 66 61
-5.029765590359567 -1.8206409853056948 -0.27209213418794054 72 73 69
-4.7980119406212856 -1.919266073172773 -0.23418082469034296 81 79 80
-4.809661707117686 -1.9204647912811208 -0.24361224884925692 88 85 87
-4.82269324973488 -1.9211464941605483 -0.25335651850211605 96 93 96
-4.83100091815893 -1.923732035121309 -0.26219790398486564 100 98 100
-4.840952658843428 -1.925692524727959 -0.27139942691490604 105 105 105
-4.833435603971786 -1.9345514851781669 -0.27708865768522406 110 110 110
-4.835554460234593 -1.9396179635936717 -0.2847308957115149 113 113 113
-4.8375410594976875 -1.9447451441659542 -0.29235690025279704 117 117 117
-4.823767248121104 -1.9560242283736207 -0.2967261834377031 120 120 120
-4.805285893010531 -1.969104107773839 -0.3000777874182161 122 122 122
-4.7846570200046195 -1.9829762305362455 -0.30292937785254637 125 125 125
-3.6443999740861974 -2.4427915940334417 -0.08531182364508716 132 132 132
-3.64000714367657 -2.44898889221101 -0.08988372136905243 135 135 135
-3.6383237811286806 -2.4541483968806115 -0.09503972726316623 137 137 137
-3.646026254367831 -2.455748656697135 -0.10226285338542995 139 139 139
-3.655012821703676 -2.4568850246938996 -0.1097969693948666 140 140 140
-3.6641075678869526 -2.4580051170043804 -0.11738516213929906 143 143 143
-3.6709068943878114 -2.4600119988322433 -0.12448778158623874 145 145 145
-3.67901351999082 -2.461548806074917 -0.1319097005141463 147 147 149
-3.6865841179057526 -2.463308088277785 -0.13923704283202765 149 149 151
-4.595642428467123 -2.1297683695104848 -0.3531233521350079 151 151 153
-4.639228134438842 -2.1192938696267456 -0.3701229214083359 155 155 157
-4.653402616758666 -2.1197970471368786 -0.38043049774462623 156 156 158
-3.9404235731665587 -2.388204242330321 -0.22100343535716704 158 158 160
-3.750058916515619 -2.467703238530303 -0.18801370183038135 161 161 163
-4.118784469368946 -2.3430269506452777 -0.2877405871209897 164 164 166
-4.122996949981483 -2.346640833588442 -0.2950387582569005 164 164 166
-3.82244912694995 -2.4603419406190135 -0.22851537445957404 166 165 168
-3.8099457089036517 -2.469634103661352 -0.23132449625538576 168 167 172
-3.7731312158331667 -2.4971016687315344 -0.23972774435778244 170 170 172
-3.779514938530939 -2.4995792639516417 -0.2471215846158955 173 173 175
-3.787433708382138 -2.501532163785376 -0.25492368839898216 173 173 175
-3.787971426083224 -2.506111089522327 -0.26088875262158806 172 173 175
-3.979056431795523 -2.443709401976996 -0.3152711647276736 174 174 176
-4.3254125974947115 -2.3328055175366567 -0.41653758151197684 176 176 178
-4.315260387676387 -2.341770415486782 -0.42055439898156965 178 178 180
-4.328053403691531 -2.3427593053983586 -0.43051107644875164 178 178 180
-4.345290767449157 -2.34224744849449 -0.44167224561690144 177 177 179
-4.335816018941768 -2.350977482294726 -0.44586520691235787 177 178 179
-4.359228814311595 -2.3484057794158666 -0.4587311249203284 178 180 181
-4.37274026603151 -2.349279447391074 -0.4690382175470984 176 178 179
-4.37124422748186 -2.355301768809976 -0.47537704032740424 175 176 177
-4.370814761385154 -2.3609622224507856 -0.4820028284533978 175 176 178
-4.364210383756227 -2.3687137693624263 -0.48696242071293794 177 177 179
-4.365084483219141 -2.3739329095837802 -0.49394011357788803 173 174 176
-4.354330434709608 -2.383062270670865 -0.49774643815143194 175 176 178
-4.328165932742099 -2.397324662069785 -0.4972898494427279 180 181 183
-4.317126044317563 -2.4064855968761467 -0.5009393136441669 182 183 185
-4.309116931475801 -2.4146168108943638 -0.505402463831268 182 183 186
-4.311489774761518 -2.4192970334590003 -0.512746210479991 184 184 186
-4.302986454759079 -2.427572224384149 -0.5170474231957071 186 186 188
-4.284127805485026 -2.43923140601638 -0.5184043437339725 185 185 187
-4.285657093999565 -2.444177052931058 -0.5254957296159697 185 185 187
-4.918985162743622 -0.9992625376731296 0.8237145327054702 199 199 201
-4.869702519581141 -1.0327358237192692 0.816345524824118 199 199 201
-4.848614873976937 -1.0500756307961225 0.8095073793620102 197 200 199
-4.85263321630746 -1.0531249980536654 0.8030497453177832 196 196 196
-4.856639347055985 -1.056193255302131 0.7965773429149596 190 190 185
-4.86092378880978 -1.0591161061685002 0.7900932679412709 173 169 158
-4.875766603076864 -1.0560927963554998 0.7836913955832383 129 118 98
-4.8876960516325765 -1.0547456569192506 0.7772235403632932 96 78 49
-4.872266483366509 -1.0688093986621623 0.770538895841359 107 86 52
-4.85631131479364 -1.083138604071815 0.7638874614666862 121 102 62
-4.835216528545546 -1.1003158298468803 0.7572527608860391 141 121 76
-4.815736172008516 -1.1165489029250888 0.7506733248375195 143 123 75
-4.832486195784757 -1.1125289117583272 0.7441917565484828 109 88 43
-4.843323241975253 -1.1118410350817205 0.7376615852975481 80 60 23
-4.822695837151656 -1.1286681020895863 0.7311367225299576 60 43 14
-4.811601157787907 -1.1401662308131928 0.7246376964462762 48 34 13
-4.7967306657322535 -1.153734547612415 0.7181779656321154 34 24 10
-4.881856308841715 -1.1120171447358016 0.7112397140024578 17 12 5
-4.850135968233618 -1.1349288819738044 0.704827025430335 12 11 8
-4.864964389900857 -1.1321533891601125 0.698132240195837 12 8 7
-4.86090741430421 -1.139788333580558 0.6915655652750139 12 8 7
-4.854908237600236 -1.1484829342555654 0.6850254623957994 12 8 7
-4.872075659657932 -1.1444909290649474 0.6782258329140891 12 8 7
-4.869148768725177 -1.1515137195737273 0.6716383037601101 11 8 7
-4.809614856248449 -1.1893880768674605 0.6658655119791947 14 12 10
-4.926094011234686 -1.1313892106789711 0.657490741469074 14 10 9
-4.853471988774565 -1.176309165168116 0.6520133185300112 16 11 11
-4.8169693933610525 -1.2015054052073941 0.6460626381048018 14 12 10
-4.750333335728493 -1.242920733586124 0.6407948967640931 10 9 7
-4.707801901130401 -1.2711870575086444 0.6351944750710545 9 7 8
-4.684855037499572 -1.2888169054537522 0.6292665273335873 8 6 7
-4.6643167524869344 -1.3051058643925062 0.623338336966035 9 7 8
-4.6408368804261775 -1.3229316219643996 0.6175335960093402 8 6 7
-4.655926639857903 -1.3200623842950665 0.6107755787996181 9 7 8
-4.899526314045438 -1.1951490557845128 0.5976788780742601 9 8 7
-4.882174522570882 -1.2098966774796405 0.5914662185094164 11 10 8
-4.8709676342386565 -1.2213406267696723 0.585109685609392 10 9 7
-4.865867998390765 -1.2295209020743507 0.5785860290606826 9 8 6
-4.873671269730512 -1.2308564101243245 0.571647654028014 10 9 7
-4.876869019189762 -1.2346478984526479 0.5648416342779046 7 6 4
-4.879444247968398 -1.238778428153287 0.5580448681947954 7 6 4
-4.8840617999272204 -1.2418425864925284 0.551161638270804 9 8 6
-4.8849018997289 -1.2469055875383852 0.5444059649804596 10 9 7
-4.8900378829799 -1.2497210294931898 0.5374739443034755 13 11 9
-4.902982651799108 -1.2484644912935665 0.5302048918745177 13 9 8
-4.907137033034214 -1.2518307311219983 0.523267685426368 10 9 7
-4.909232703320665 -1.2562825954048025 0.5164045712115304 13 12 10
-4.910260149892052 -1.2612982102005585 0.5095793623045204 14 13 11
-4.899886426627115 -1.2722366800946225 0.5032736135247513 11 10 8
-4.886445102537935 -1.284744702474768 0.4971370095941219 12 11 9
-4.890568741587275 -1.288149479593355 0.49017363903365596 9 7 7
-4.89267939552648 -1.292604991355356 0.4832958789809798 8 6 7
-4.899413724784208 -1.2946894309213388 0.4761697044790092 8 6 7
-4.892523736411454 -1.3037883187360977 0.4697416270335941 10 8 9
-4.914835639792267 -1.2979127215258346 0.46174393405013947 8 6 7
-4.901809822658743 -1.3101579084512422 0.4556457853726521 7 5 6
-4.822584032398881 -1.3561530739271017 0.4533463170758987 8 6 7
-4.8122267261100085 -1.3669167489426708 0.44724290992150784 7 5 6
-5.1103629368999695 -1.2734236434944852 0.35867640495921305 7 5 6
-5.091217890307621 -1.2887871246818507 0.35293110281254014 7 5 6
-5.019440144520292 -1.3302084686390008 0.35115293171279904 9 7 8
-5.118641039092579 -1.2868888621862387 0.33659899455857234 10 8 9
-5.084257025969136 -1.3097312367997527 0.3320826231473626 14 12 13
-5.050221238451344 -1.33232948375881 0.3276276147202555 21 19 20
-5.014220696778514 -1.3558212377475023 0.3234174634768541 27 24 25
-4.714394088895861 -1.5085807073800683 0.34074144194976985 39 35 35
-4.737574596574718 -1.502677330093855 0.3321869343007413 58 54 51
-4.771303181402208 -1.4916814059865469 0.32267896612460367 71 67 63
-4.779856161380472 -1.493022784289883 0.3152235357355604 77 72 69
-4.702783617185595 -1.5359838416393954 0.31516569841947106 76 71 65
-4.9881174224029605 -1.4031238657897025 0.283391765235933 75 69 61
-4.241529071370852 -1.7797664029950901 0.3310964486847152 99 81 53
-4.219493870493029 -1.7952821386858684 0.32713079737683737 118 96 60
-4.192785358311827 -1.8129906415634407 0.3236651130067618 126 104 65
-4.117481428142691 -1.8538693488504556 0.3249479536117039 132 112 72
-4.121210438997393 -1.8568959950183572 0.31871485022155044 136 118 78
-4.137364173934599 -1.854023508889728 0.31123717958637154 112 93 56
-4.146076943642883 -1.8547219516759657 0.304458401972324 91 73 40
-4.146228619126401 -1.8594966045932555 0.2985231426225663 75 61 32
-4.120015679602155 -1.8767279888381903 0.295303200778372 69 58 33
-4.1224060725605485 -1.8804251075813323 0.28916154274883654 61 50 30
-4.130071830845722 -1.8816508920759687 0.2824507160546492 58 49 32
-4.139457956985632 -1.8820903636005268 0.2755303074552433 62 55 41
-4.153221984329926 -1.8805060766854418 0.2681044041488161 63 56 45
-4.171257482900781 -1.8769625566794654 0.26016657443760716 58 51 41
-4.194886400223942 -1.870858848020488 0.251551797600446 60 53 43
-4.213940919608276 -1.8669363708628977 0.24338380615758237 62 55 45
-4.2198372041176135 -1.8691566750006057 0.23666164029076042 65 56 47
-4.216357176618539 -1.8757271769307393 0.2310027630171687 67 58 48
-4.208782415240299 -1.8841809557340672 0.22582838952093676 65 57 46
-4.197700492232469 -1.8942338472322229 0.22108600400662515 63 55 43
-4.187783702726337 -1.9037303378079544 0.21623082646688574 63 55 44
-4.185918171058624 -1.9095229605317936 0.21042407040055333 61 54 41
-4.2013070425444345 -1.9074377952292474 0.20250490165430035 63 58 41
-4.21541985937591 -1.9059719709212664 0.19469708410305553 65 59 44
-4.231717974881815 -1.903548897036997 0.18657227435302648 66 58 44
-4.242245103952373 -1.903781053642124 0.17912908653442483 66 57 43
-4.254335629802123 -1.9033339161399079 0.1714523540408639 62 55 40
-4.347312710662762 -1.8664523680417746 0.1532673945654135 62 55 39
-4.32767384731719 -1.8804273508749278 0.1495539539525106 64 56 43
-4.280771735444654 -1.9065895520715888 0.14949620373278516 63 55 43
-4.292136487641189 -1.9065796337473977 0.14177902697031675 63 55 43
-4.2934188093104435 -1.9110983881680064 0.1353873755988666 62 54 41
-4.314871742650949 -1.9066453060357142 0.12623631564591098 62 54 41
-4.330737892207772 -1.9047250518438743 0.11779111063934722 62 54 41
-4.3554702474391 -1.8989183929859514 0.1080630357538499 64 55 40
-4.3780353144369055 -1.8941290712314531 0.09856630875894146 66 57 42
-4.377512774097789 -1.8995657066985385 0.09228099801056411 64 57 41
-4.399583469774768 -1.8950775484175293 0.08275263568747881 62 54 38
-4.406285743127929 -1.897378503006483 0.07538379579176135 63 54 39
-4.407935983317881 -1.901906517847228 0.06873060768758021 64 56 39
-4.408272073825526 -1.9070147121677277 0.06226251430204721 62 55 37
-4.417942571239687 -1.908068720753803 0.054398062100922795 61 52 37
-4.4252089315576155 -1.9101910179371644 0.04686380547531188 59 50 35
-4.42397293032997 -1.9160106974566915 0.04059584979301434 63 54 37
-4.430632425565049 -1.9184254931032894 0.033117050136085346 62 53 36
-4.418733267912307 -1.9288426792887865 0.028485499167537176 60 51 36
-4.408753974715042 -1.9384122741556207 0.023583536249254244 59 50 35
-4.392368519826664 -1.9507033411497572 0.019714272586875525 58 48 36
-4.444260164974906 -1.9338254250198632 0.0050380958492355354 55 45 35
-4.552828735089039 -1.8929518887301215 -0.018874704812002818 53 44 34
-4.623402439840386 -1.868458144648919 -0.036954235732510554 54 46 35
-4.629144076619883 -1.8715710298555681 -0.04466148647006185 52 46 33
-4.573467409224158 -1.9006244451637548 -0.04228310202278296 49 43 29
-4.578379556017941 -1.9040493148889603 -0.049807287835399006 50 43 32
-4.584801986457374 -1.9068553055654092 -0.057602690784140265 50 41 33
-4.58746919159314 -1.911251836134511 -0.06478692351030868 49 41 30
-4.596449674135991 -1.9130228574563986 -0.07305789981741939 53 45 33
-4.601071209446186 -1.9166329869310186 -0.0806107271284735 52 44 30
-4.585340388752136 -1.928706092439957 -0.08465898085832557 53 46 30
-4.575876735001222 -1.9381520085789452 -0.08976056571821345 46 40 26
-4.572137194469031 -1.94521676972118 -0.0958466689701698 43 37 25
-4.646289559331132 -1.9202148852963052 -0.11573940657169746 39 35 25
-4.910697222862622 -1.8172993515210787 -0.16985753016448402 35 30 25
-4.852205800195723 -1.8530208326936815 -0.1737096534571254 37 32 29
-4.781975011263311 -1.8874637010956583 -0.16801591667082683 41 36 33
-4.757421923984199 -1.9032112860196972 -0.17055232328780945 39 38 33
-5.041648150429449 -1.7939714160261984 -0.23042426988472298 45 44 39
-4.875839697701532 -1.8669607193858075 -0.20681050096043374 49 48 43
-5.02932760991828 -1.8172147917472992 -0.2504360607449936 58 57 53
-5.0356777117791305 -1.820769626554846 -0.259096964120189 62 63 58
-5.031148524171652 -1.82868150681814 -0.2656807517930986 71 72 67
-5.018116553654936 -1.839967275602687 -0.2706028134231284 79 77 78
-4.828641558341162 -1.9211667496890552 -0.24092166201938592 86 85 86
-4.838714890233215 -1.9230602574933986 -0.2500855108348792 92 90 93
-4.8506467948155985 -1.924249112484441 -0.2596526817359903 99 98 100
-4.8612114326914995 -1.9260072069791598 -0.26898526958125535 103 103 103
-4.8489530429600105 -1.9367334814569652 -0.2737500454895474 110 110 110
-4.843359573042284 -1.9448321923965026 -0.2798382115501379 114 114 114
-4.794714701148559 -1.9872693709460194 -0.29859011522891166 123 123 123
-4.7519302898054665 -2.0270764517541755 -0.3181151920985048 130 130 130
-3.640022302122988 -2.4643004823881727 -0.09595122302196346 139 139 139
-3.645250915573764 -2.4668575901581598 -0.10263069462209762 140 140 140
-3.650382466450102 -2.4694666239909933 -0.10930757912242028 142 142 142
-3.655625306697222 -2.472049351422382 -0.11602802021187453 141 141 141
-3.6612249881864045 -2.4745146685690287 -0.12284773958069073 147 147 149
-3.6720680377995603 -2.4750484831260846 -0.13087425503807182 149 149 151
-4.598806553920386 -2.1364418370282534 -0.3475607902027855 150 150 152
-4.640275423372048 -2.126823095586593 -0.3640151998222858 152 152 154
-4.651644660150744 -2.128381759410251 -0.3736514052303652 155 155 157
-3.9351387569803378 -2.396904170910049 -0.21434045321984185 156 156 158
-3.7568532746958523 -2.4716739374384096 -0.18441570593135148 160 160 163
-3.8093196135808034 -2.476397979432921 -0.22586891768270767 168 167 171
-3.766625805302692 -2.5058850658649625 -0.2328500340710672 170 170 172
-3.773087165102892 -2.5083368201309724 -0.24023922356735816 171 171 173
-3.781266876924681 -2.510201998686693 -0.24808059738011567 172 172 174
-3.978727842927145 -2.4456326640178094 -0.3035063383252393 174 175 177
-3.966173759109247 -2.455027105316526 -0.30644321298797594 174 175 177
-4.327732812520866 -2.3393763796732996 -0.4110793787839695 175 175 177
-4.308029966820348 -2.3516332691892066 -0.4126507020125917 176 176 178
-4.324492671980745 -2.351366941497204 -0.4235218553200971 178 178 180
-4.3400714131608105 -2.3514481658252016 -0.4342163400406476 179 179 181
-4.334899747304456 -2.358680687884288 -0.4395333544706831 177 178 180
-4.3601663781506685 -2.3555121427033874 -0.45284717709902333 177 178 180
-4.37125303020961 -2.3572328149090205 -0.46248908220875196 175 176 178
-4.368271327776937 -2.3637532428961077 -0.46842571188393645 175 176 178
-4.368617860512777 -2.3691460032107026 -0.4752484964383865 175 175 177
-4.372399614038198 -2.373387234098698 -0.48300105150162165 173 173 175
-4.369429452309655 -2.379905652268308 -0.48894307520026636 173 173 175
-4.352016930387098 -2.3912461425497957 -0.49095271687885245 178 179 181
-4.33719807336535 -2.401684525830223 -0.49362444016592866 181 182 184
-4.3258429033064605 -2.4109416839670064 -0.49720902163954006 181 182 184
-4.314344538948419 -2.4202222085789895 -0.5007247565982609 182 183 185
-4.3194292900531455 -2.4240185704954245 -0.5088200996638723 185 185 187
-4.2868484417618085 -2.4401861210497935 -0.5064097147195138 186 186 188
-4.290127203020829 -2.444558996576819 -0.5139809794606562 184 184 186
-4.292425414750612 -2.4492628849580105 -0.521289684609091 185 185 187
-4.9084005307852365 -1.0138333724349824 0.8290385661426598 200 200 202
-4.890588933733033 -1.0293362631370109 0.8221652451878221 199 199 201
-4.851117684987917 -1.0570843964015606 0.8149975919775969 197 199 200
-4.8444229470659375 -1.066204682512057 0.8083945946099136 198 198 199
-4.8480374934121935 -1.069491363089584 0.8019381236652736 195 196 192
-4.856203347579175 -1.0702233837561135 0.7955210264695498 183 181 173
-4.869911272275028 -1.0678578205302758 0.7891357712207372 157 149 134
-4.891884769546868 -1.060882864156071 0.782785293610406 102 86 61
-4.884674763031427 -1.070316935422989 0.776147858045751 101 81 50
-4.869870596397948 -1.0839878487223333 0.7694761875854577 115 95 59
-4.848048127205215 -1.1015496930118505 0.762802946528391 134 115 72
-4.824348892829582 -1.1201143436078995 0.7561752602591081 140 119 72
-4.825238885622631 -1.1249534383696314 0.7496670055770751 125 104 57
-4.846741844056342 -1.1183535058392793 0.7431770897847871 97 74 33
-4.838799768921318 -1.128119474810363 0.7366297597608611 67 48 12
-4.83296069249262 -1.1367087913378389 0.7300960267839931 52 37 10
-4.815079883542058 -1.1519359210665543 0.7236060960800712 38 27 8
-4.888845112780478 -1.116638999683588 0.7167896741585913 22 16 6
-4.851320882188267 -1.142695404218125 0.7103697916261875 15 12 8
-4.85883434449247 -1.1439594986349477 0.7037445842234964 15 10 8
-4.870977924118466 -1.1427073435280193 0.6970585604470858 13 9 8
-4.865610635932964 -1.1510565120104481 0.6904988012678415 13 9 8
-4.8709759161202015 -1.153542579488074 0.6838352454049443 12 8 7
-4.866845479938593 -1.1612137564259812 0.6772663449639054 10 8 6
-4.817092188714353 -1.1936702806716486 0.671307090277214 12 11 9
-4.802133569065926 -1.2071536286922657 0.6649688248908834 15 11 10
-4.7872548049054755 -1.220564938945283 0.658664466545615 17 12 11
-4.803567016982981 -1.2170998662520458 0.6518595655607038 12 11 9
-4.7373258349847145 -1.258175256844127 0.6465337140651011 10 9 7
-4.728927547150995 -1.2679922534021173 0.640232700635353 8 6 7
-4.709098405109323 -1.2839317633009988 0.6341912078454017 9 7 8
-4.6911093535512665 -1.2988458015827669 0.6281566317922951 10 8 9
-4.64250367073114 -1.3300961206636912 0.6228933008812148 8 6 7
-4.64384175413348 -1.334591821530422 0.6165010639547865 9 7 8
-4.911822523092897 -1.1970883999916864 0.6030565289904557 9 8 6
-4.898221161400301 -1.2098261522506288 0.5967101884800785 12 11 9
-4.878878875513606 -1.2255828919695562 0.5905624459622352 11 10 8
-4.882748236223343 -1.2290150019160082 0.5837561102007953 9 8 6
-4.867124078755898 -1.2427559856448762 0.5775535853714344 10 9 7
-4.87325552416716 -1.2449984099612248 0.5706691430706421 9 8 6
-4.907026687842098 -1.2327180140640253 0.5628137623960432 8 7 5
-4.925692528173746 -1.22844439328682 0.5554036440557653 11 10 8
-4.910238646955095 -1.2420891774762182 0.549203352780046 12 11 9
-4.8974348374372925 -1.254318453411228 0.5429381301043112 16 13 12
-4.893595874640597 -1.2618465705976851 0.5363466756010224 13 10 9
-4.888474983258826 -1.270037247281074 0.52981368881255 10 9 7
-4.883406839174601 -1.2781929159240892 0.5232877502245519 13 12 10
-4.911970427256616 -1.2689063376768939 0.5153009136730586 13 12 10
-4.913771731530709 -1.2735302048028334 0.5084389090789814 10 9 7
-4.896961578855134 -1.2877690840239269 0.5024309360133121 12 11 9
-4.883539054555858 -1.3002297109626508 0.4963018624090849 9 7 7
-4.896079964919223 -1.299318812496873 0.4889305591047197 7 5 6
-4.9030086139407 -1.3013176948842438 0.4818041114411711 9 7 8
-4.913169546666179 -1.3128421977156712 0.4608649873255888 8 6 7
-4.717374948508175 -1.4179944603401373 0.4649658506618022 7 5 6
-4.704999743109081 -1.4296480014320312 0.45911340490441144 7 5 6
-5.074481244835587 -1.3000452140161887 0.36736757208230664 8 6 7
-5.076851517848114 -1.304680200275488 0.3601071274535055 8 6 7
-5.075148522738068 -1.3113370696839426 0.3531342147691907 8 6 7
-5.049192401702544 -1.3299517906942375 0.34797204745600063 9 7 8
-5.1030667775991 -1.3092415108330644 0.3368070855587828 13 11 12
-5.056197062418316 -1.338101995564215 0.33328634188404593 18 16 17
-5.040869276914528 -1.3514157219784648 0.3274048195860382 25 21 22
-4.731031419516073 -1.5085947652050287 0.34514826039519586 36 32 31
-4.752992814302951 -1.503341987246598 0.33670400797148203 54 50 47
-4.791544515595003 -1.4900728259214495 0.3268217296745273 68 65 60
-4.8024761433261265 -1.490295883650664 0.3191549756284666 77 74 70
-4.737043978831625 -1.5275171533094956 0.31798592839223616 75 71 66
-4.271379161282571 -1.7727952890436227 0.3336086451131457 96 80 54
-4.266333323724836 -1.7801767722031725 0.32801253018820464 113 93 59
-4.231726322471797 -1.8016632655403968 0.3251970289512758 124 102 63
-4.123813117969667 -1.8579909412806197 0.3294436902998483 130 110 71
-4.118183191989808 -1.8654772023927597 0.3241147875945436 140 121 81
-4.133691773653239 -1.8629332371870535 0.31672925375795447 118 100 60
-4.137223269659316 -1.8660915968333303 0.31048557961807943 96 77 44
-4.137497559528106 -1.870797843505516 0.30455595068560104 76 62 34
-4.126221962201042 -1.8809441803783176 0.29979927446698107 72 62 34
-4.123731427565708 -1.8869432685322234 0.2941619172704073 64 53 30
-4.13373139302324 -1.8870890571494374 0.28721967858138764 56 47 28
-4.144936989162864 -1.8866971929693577 0.28011813083255754 61 54 38
-4.1551523394036645 -1.8867954344665847 0.2730882313448739 62 56 44
-4.169715869375913 -1.8848978672121233 0.26555301636199546 61 54 44
-4.194819070274304 -1.8781469478726185 0.25681206325171546 60 53 43
-4.2051242613148405 -1.8783042600596627 0.24964929530420155 61 54 44
-4.227179821807249 -1.8730635830960356 0.2411265765882631 64 56 47
-4.220407849240163 -1.8811517086761598 0.23583560067313702 66 57 47
-4.209858123956542 -1.890963226374153 0.2309965762054489 64 56 44
-4.2018237745214035 -1.8996014391812077 0.22588811777700823 62 54 42
-4.197401613745478 -1.9065735122351648 0.22036982285818674 63 55 45
-4.180022454180307 -1.91944699869005 0.21641324007806273 59 52 40
-4.172801672066214 -1.927663777838513 0.21126882859674856 64 58 40
-4.21473353393889 -1.9135663175406123 0.20011105972421772 65 59 42
-4.234516841293239 -1.909591347464263 0.1915805399835051 64 56 41
-4.238432903420698 -1.9128277469926842 0.1849814832754122 67 59 43
-4.240429486699511 -1.9169407202834035 0.17861094420064427 65 58 42
-4.353041372307513 -1.871377840916721 0.1580472429155384 62 55 39
-4.330184372791972 -1.8867675390525056 0.15472494970229378 62 54 41
-4.27386994427136 -1.917059844110953 0.15584534351240298 62 54 42
-4.289035467002301 -1.915365850676046 0.1476544542777174 62 54 42
-4.299072070751833 -1.9159901542025433 0.14010339298812347 63 55 42
-4.316431520417847 -1.9133934757042272 0.13153021004603405 63 55 42
-4.336831536486814 -1.90949504804669 0.12248910666954416 62 54 41
-4.354672604832004 -1.9067756411030694 0.11373993437633168 64 55 40
-4.376247452790981 -1.9024576161706293 0.10441626555596084 66 57 42
-4.382005604916283 -1.9051339509501153 0.09725473246196881 63 56 40
-4.395737344971607 -1.9043367464199308 0.08893914717862006 61 53 37
-4.400575531609866 -1.9074572303529274 0.08185781347532983 63 54 39
-4.402181571395879 -1.911999673086353 0.07522727258042683 64 56 39
-4.40519002287796 -1.9159402668681096 0.06838266657633163 62 55 37
-4.413020300467789 -1.9178028202736213 0.060812721078710386 58 49 33
-4.424020744178949 -1.9183174674909431 0.052743525500132504 61 52 36
-4.424874451776997 -1.923232417344133 0.04616723228349162 62 53 38
-4.428424273222842 -1.9269944177469949 0.03917440375908865 62 53 38
-4.428940361150276 -1.93206814392722 0.03263269697593052 60 51 36
-4.415664640102148 -1.943040719999682 0.028220523768626604 59 50 35
-4.400892241594857 -1.9546240745537031 0.02407528136968584 57 47 35
-4.380843749306325 -1.9684194477767376 0.020799135993595064 58 45 36
-4.486617844908663 -1.9288360896314387 -0.0024374164215450467 56 45 35
-4.604465858805118 -1.8843968747989588 -0.027914464579234632 55 45 35
-4.610733840937184 -1.887274367742349 -0.03566638169125147 53 44 34
-4.600457534593157 -1.897125697542354 -0.04073894722783433 51 42 31
-4.581927160347046 -1.910417542546238 -0.044427428112592926 52 43 32
-4.5892356991539955 -1.91286671770427 -0.05236043897136544 50 42 32
-4.596978769605843 -1.9151553734966449 -0.0603914632358602 52 43 33
-4.602471773113411 -1.9184012533147252 -0.06806878502650071 54 46 34
-4.602304780763941 -1.9240103559845632 -0.07480187445569042 55 48 33
-4.588902981380266 -1.935094801318424 -0.07926530339765292 52 45 29
-4.590574924128337 -1.9399369740068884 -0.08630625100660172 46 40 25
-4.618511781599036 -1.933988518849111 -0.09794340844452565 44 38 25
-4.6360615948096155 -1.9323671994948493 -0.10783580938981951 39 35 26
-4.958906954622168 -1.8059870358912247 -0.17196873942499225 35 30 26
-4.9243828979386635 -1.8260382452060018 -0.1730885474244641 33 28 24
-4.906567150313073 -1.8392215567035137 -0.17712795704220907 35 30 27
-4.8622982197446545 -1.863088481247968 -0.1763131919096559 39 35 31
-4.845258895000059 -1.8758517482341412 -0.1803651243681692 38 37 32
-4.841877124000354 -1.8830757445190212 -0.18689465111281778 43 42 37
-5.054931561833029 -1.8278200948652898 -0.2635706777504496 69 70 65
-5.042772145404361 -1.8387655678651886 -0.26870487553852396 76 76 74
-5.036098086747367 -1.8475212995453685 -0.27487691333655917 83 83 82
-4.861249467239135 -1.9224524905475415 -0.2480590225171233 90 90 91
-4.866798833580992 -1.9261907683016801 -0.25637545380406257 97 97 98
-4.8803173173154555 -1.9268285480073488 -0.26629821934447073 103 103 103
-4.864779586529998 -1.9388349108310616 -0.270442058285443 109 109 109
-4.858903565972902 -1.9470516975251906 -0.27649611918904804 111 111 111
-4.172429025074382 -2.234480322998726 -0.16295627825530845 123 123 123
-4.168104407750239 -2.241268774760762 -0.1683164403943156 126 126 126
-4.776109664347814 -2.0142924743332484 -0.3025606763804225 126 126 126
-4.757179923683264 -2.033187879512041 -0.31281829660606486 132 132 132
-3.638496038460875 -2.4711411414406603 -0.09063711512820838 136 136 136
-3.63188751947647 -2.478138594497974 -0.09470746355987836 138 138 138
-3.6346547518713512 -2.4816221288210873 -0.1008310488043358 140 140 140
-3.6422513164479495 -2.483317618596943 -0.10803899797099481 143 143 143
-3.64682265803463 -2.486156807663057 -0.1145965017123215 144 144 146
-3.6505465958600984 -2.489323401690719 -0.12098039998926213 147 147 149
-4.5129906425467485 -2.1815036305515467 -0.3286638089432212 153 153 155
-4.531176242930627 -2.1804309546370932 -0.3396559097764522 154 154 156
-4.553440706629708 -2.1779164488933174 -0.35164729673818496 156 156 158
-3.7498965750358213 -2.4759595754809327 -0.17187305909717832 158 157 162
-3.7526867230373706 -2.4796335487440677 -0.17824458063278803 161 161 164
-3.755054483931394 -2.4834700866027313 -0.1845287999741716 162 162 164
-3.750277961844477 -2.489889521344586 -0.1891328847204825 164 164 166
-3.7477403428878784 -2.495496721204468 -0.1942600832095972 164 164 166
-3.744652924571586 -2.5012977937560548 -0.19925200604131632 164 164 166
-3.7404059776884324 -2.5075082379503173 -0.20395923445501662 165 165 169
-3.7680711941949876 -2.5023673181665345 -0.2163982620435443 168 167 173
