ply
format ascii 1.0
element vertex 706
property float x
property float y
property float z
property uchar diffuse_red
property uchar diffuse_green
property uchar diffuse_blue
end_header
-4.512314255423437 -2.3767972645803117 0.26545085778121824 59 53 38
-4.520825629507167 -2.379788072989455 0.25836868783088107 59 51 38
-4.534130209793895 -2.38200852927773 0.2512176370080532 58 50 38
-4.569231032869229 -2.3806875167241643 0.24381472820612315 59 50 35
-4.582174624385662 -2.38304118789431 0.23654879229708614 58 49 33
-4.595196259929094 -2.3854090618804817 0.22923902812117358 57 48 31
-4.578109759627027 -2.392652594441334 0.22230324584100258 55 46 30
-4.607100755405719 -2.3924900748463824 0.21470625143943023 54 45 30
-4.594735961042251 -2.3989688625387307 0.20771201126883443 57 48 33
-4.606794996218008 -2.401561753021535 0.20030381228175131 58 49 33
-4.641520241810905 -2.400611574097547 0.19241055162448628 59 47 31
-4.656975259046128 -2.4027441494841217 0.18481706165080825 62 51 33
-4.677871088168912 -2.404061582707998 0.1770507099955938 62 51 33
-4.693358986942791 -2.406257223349055 0.16934760907326618 61 50 31
-4.702677008638441 -2.4094336296916294 0.16175048381742618 60 49 31
-4.711640260106378 -2.412684874243572 0.15413000184019676 58 50 29
-4.712921451090815 -2.4171237894880546 0.1466949163141118 58 50 29
-4.7128848742613165 -2.4217678623072714 0.1392893555591599 50 43 25
-4.718727545361962 -2.425532609105881 0.13169460413320588 48 38 26
-5.078442372503581 -2.38645510824215 0.09661005520107846 31 27 23
-4.718296744080801 -2.444223349673402 0.1019667102529318 34 29 28
-4.6313005461292995 -2.461558818792614 0.09786190226471425 35 30 26
-4.5763741123698365 -2.47409804801522 0.09272470257135978 38 34 31
-4.364484025418881 -2.5091131286786785 0.09423576861317873 40 36 33
-4.263349157634838 -2.5279182517184777 0.09161582498566356 43 39 36
-4.272709828037398 -2.5308538745384714 0.08439161568713938 46 42 39
-4.289949939188634 -2.532698594497148 0.07677400522723477 53 49 46
-4.30637360110405 -2.5346927919420974 0.06913897102829059 57 55 51
-3.615545102316673 -2.64625003643563 0.07822182670700573 87 87 90
-3.5901165136656026 -2.6533895672649264 0.07371279882442505 94 94 96
-3.521493973889973 -2.66630046708675 0.07169374624666658 99 101 98
-3.4300037021600693 -2.6821454461508103 0.07118677882061686 107 109 107
-3.3441967051719454 -2.697069887983863 0.07060953348976562 110 112 112
-3.322998087975217 -2.703319296428365 0.0663755046265333 115 118 120
-3.283297162825163 -2.7119550009981497 0.06334521868570175 116 120 121
-3.258944202100884 -2.718524612721793 0.059454722315756436 121 125 124
-3.147714686128182 -2.736266683346595 0.061267847589536184 123 127 126
-4.96121440347178 -2.522041060818687 -0.08811973156537278 136 138 135
-4.980677613392281 -2.5245981109221596 -0.0974772179343486 139 141 139
-4.988204985150767 -2.5286697247777523 -0.10601851297882448 140 142 141
-4.99407737721584 -2.532962302339972 -0.11446413814747469 142 143 144
-5.0033385092802245 -2.536857634584188 -0.1231937990632308 143 145 142
-4.5920324172127 -2.596202428900404 -0.10649014291786485 149 151 148
-4.536962619978446 -2.6074067898533593 -0.109457026206643 151 152 151
-4.484721170863143 -2.6181784847470193 -0.11249952176547806 153 154 156
-4.141920753445327 -2.662848220555333 -0.09092820356602349 157 158 160
-4.141205154549216 -2.667180182137267 -0.09765138379915417 158 159 161
-4.138599438956227 -2.6717318521224485 -0.10421316810051962 161 162 164
-4.139109916969642 -2.675926307334785 -0.11104904784735647 163 164 166
-4.869709285324772 -2.602396762727131 -0.19163086307784183 166 167 169
-4.742748962326736 -2.6214854619327754 -0.18770496556097505 169 170 172
-4.6203128242102265 -2.639839786709388 -0.18383249246502498 169 170 172
-4.504222039297905 -2.657272849218662 -0.1802085614448352 172 173 175
-4.393113439934897 -2.673950260386318 -0.17672819793195726 172 173 177
-4.312533371514481 -2.6871372495277037 -0.17594763379884237 173 174 178
-4.696404160901258 -2.6506426360845774 -0.22170265119134536 175 176 180
-4.698352476470718 -2.6552477311806646 -0.22958387554398318 176 177 181
-4.699215149293553 -2.6599741851286023 -0.2373646740258908 176 177 181
-4.698198355351673 -2.6649013350959283 -0.24495660445790635 177 178 182
-4.7056704186230345 -2.668957300434422 -0.2534579240806587 179 180 184
-4.708840468854215 -2.6734698423441925 -0.2615224506836469 178 179 183
-4.711351123037338 -2.6780589476486427 -0.26953053575507435 180 181 185
-4.690206536174129 -2.685022811778852 -0.2749200214918528 179 180 184
-4.6823179159110175 -2.6906372081490804 -0.2817470693957813 180 181 185
-4.675229183064684 -2.696162092443197 -0.2886479557530386 181 182 186
-4.79712280441167 -2.6891444549175025 -0.3104753846902495 183 184 188
-4.764985133987604 -2.697183235683191 -0.3146021523894791 182 183 187
-4.764714124619445 -2.702129115931364 -0.3224260966598069 183 184 187
-4.75086568785294 -1.8631334578633378 1.037563728572277 198 198 200
-4.799287513915979 -1.854894774021694 1.037758895535211 199 199 199
-5.137663806989777 -1.7722639219844067 1.0790971743070072 196 199 199
-5.142961869436213 -1.7754713449884925 1.0725638064569771 194 197 196
-5.135172251243048 -1.7820310027356392 1.0641823042929763 187 188 182
-5.057124492659823 -1.8064532589239874 1.0460918357019402 162 156 139
-4.9541181129980405 -1.837078241952242 1.0247801621447221 93 77 51
-4.9612489517649525 -1.8397021749268525 1.018687542151906 94 79 50
-4.959110447836655 -1.8446762015814862 1.011324467451642 106 88 55
-4.929898601525571 -1.856447280772188 1.0003575446926105 114 96 61
-4.940446552829659 -1.8582239617434793 0.9947028004258731 108 89 53
-4.924644817814221 -1.8665933371717398 0.9855767120692238 87 66 34
-4.910048255995233 -1.8746402944687917 0.9766427099064383 57 40 14
-4.895520502436348 -1.882649341434217 0.9677507858806194 36 26 8
-4.919400736346113 -1.8811541310472522 0.9637506015797865 24 21 9
-4.932876122487889 -1.8822624990631625 0.958379214672024 13 11 7
-4.925322284058114 -1.8885541187478658 0.9503622584788096 7 6 4
-4.905591066506699 -1.8978129053551878 0.940868044196217 8 6 5
-4.942019394135061 -1.8933627546141099 0.9382264862972927 8 6 7
-5.035718962789015 -1.9069185516142189 0.8915466243748236 9 8 6
-5.028275618594667 -1.9132387355196632 0.8834545550797721 8 7 5
-5.019916661128687 -1.9197652881681768 0.8752781025755012 8 7 5
-5.016932112318357 -1.9250217367904596 0.8676907172860486 9 8 6
-5.014858595264324 -1.9300639382458007 0.8602015084648809 7 6 4
-5.018633834367986 -1.9337452885544821 0.8533192947940977 7 6 4
-5.020418754228877 -1.9378979615062744 0.846217396272182 6 4 5
-5.030869781731764 -1.9400553807441114 0.8399811898328571 6 4 5
-3.9763569077635603 -2.2132664466858327 0.6861076429439021 7 5 6
-3.9684787500615455 -2.218742500472449 0.6794784530376052 6 4 5
-3.9723513728329833 -2.221593290509083 0.6738951646251146 8 6 7
-3.9628870412103088 -2.22740991157393 0.6671468132999689 10 8 9
-5.053213512917795 -2.0276316553407274 0.6942990869506707 7 5 6
-5.066291942748628 -2.0295192719438337 0.6877907346870569 8 6 6
-5.071324090909936 -2.0331408993222397 0.6806677044269107 6 5 3
-5.09874177759337 -2.032042503325089 0.6750885998842191 10 9 7
-5.073771881481616 -2.0420246878293344 0.6658411669684352 14 13 11
-5.077692037147481 -2.0459098970948406 0.6585949940050093 12 11 8
-5.107379322849469 -2.0444248453766676 0.6530258301143235 18 17 13
-3.8067667432824814 -2.330526612363436 0.5443938892318838 84 79 76
-3.817988198203186 -2.3318658240458956 0.5392569339658206 103 98 94
-3.8242710306010674 -2.33423299852563 0.5338006644941016 111 106 99
-3.7739729273676375 -2.3480870239680662 0.5251492364771353 81 75 64
-3.783894583475897 -2.3496979616456466 0.5199263648629957 76 68 53
-3.7929459634534624 -2.3515039038178323 0.5146251161435462 84 76 57
-4.395359324825027 -2.2345540225844407 0.5401093341203518 85 73 57
-4.350518792678833 -2.2476533054236105 0.5312025972404815 85 73 55
-4.336465257390192 -2.254568715211269 0.5239285127853464 83 71 50
-4.452050143193858 -2.2358510113289367 0.5228814772616841 91 79 56
-4.184150108960018 -2.2927668177422973 0.5037205884853435 90 80 55
-4.205652839211792 -2.292547601259031 0.4983205850827479 86 75 52
-4.206448137825621 -2.296405945627618 0.4919528384333076 87 76 54
-4.185741583350051 -2.3044418665983915 0.48467022068395127 89 78 56
-4.129975922509243 -2.3192183532542368 0.4760092159623961 70 59 38
-4.08756217174136 -2.3313325346778577 0.46802507050205056 59 48 29
-4.2839428697982145 -2.2976571163334425 0.4692352211527153 53 43 25
-4.324180849466116 -2.294086317565081 0.46417218229931434 59 52 34
-4.270221532720911 -2.308458861527671 0.45567256738631423 64 58 40
-4.226434800642949 -2.3208191860747442 0.44766288567885915 63 57 40
-4.240515208396034 -2.322229783507668 0.441647582795309 60 54 41
-4.254040551373924 -2.3237721521784707 0.4355704909252758 56 50 39
-4.267656822707051 -2.325324582510209 0.4294530342793854 60 53 43
-4.263974325733352 -2.3301098849737305 0.4228038802637697 61 54 44
-4.294035940231873 -2.328668426462613 0.4170650801155322 60 54 42
-4.303685434106528 -2.3310298625820294 0.41071773804218337 60 54 42
-4.325232459766043 -2.331238259482622 0.4046237329127911 59 51 40
-4.325588845458327 -2.335340162541028 0.3979848081122803 60 52 41
-4.330377349018211 -2.3386442034803507 0.3914335621426339 58 50 39
-4.338890268592492 -2.3412895389217434 0.38493723867922225 58 50 39
-4.356836670497201 -2.3422633624647107 0.37858496098783134 58 50 39
-4.374168172807632 -2.343381884722039 0.37216627104013167 60 54 41
-4.3877382544930095 -2.345201597790325 0.36563477801244404 56 50 38
-4.393583526076873 -2.348411993019372 0.35895034794848035 56 49 39
-4.404787029464425 -2.3506952670914916 0.3523121615620488 59 52 41
-4.412474811384893 -2.3536160233058387 0.34559710580379943 58 52 39
-4.425806629795112 -2.3555728122158475 0.33891065054811986 59 53 39
-4.448026149746024 -2.3560198001976462 0.33225620773415954 59 53 38
-4.440594279610947 -2.3616108486161895 0.3253242358766353 57 54 35
-4.462413040178631 -2.3621859927559066 0.31857251067712844 62 58 39
-4.465064576935799 -2.3660667525018377 0.31167265762321406 65 60 41
-4.465363941697711 -2.3703540588344794 0.30475321224343066 62 57 38
-4.488049987123131 -2.3708739113139146 0.29785778477165636 62 56 37
-4.495296968938576 -2.3740249629112764 0.2908932139960898 63 58 39
-4.490879441238367 -2.379136699067699 0.28391985437662615 61 55 36
-4.49929327599186 -2.3821167669756766 0.27691603810458454 60 54 38
-4.514472229616758 -2.383999902393427 0.26985316598305764 59 53 38
-4.518935893131682 -2.387670984236466 0.2628032523408914 61 53 40
-4.529176103889784 -2.390411460973701 0.2556932849492386 59 51 40
-4.537818325649234 -2.393433040056363 0.24856217785096035 59 52 36
-4.547510320297864 -2.39630435814263 0.2413900735978458 57 50 33
-4.570538666638737 -2.3970575067338378 0.23403094722773532 56 48 31
-4.582900367554322 -2.3995569915854484 0.2267381513241169 55 46 30
-4.579406325308006 -2.40459702604627 0.21963224008352067 57 48 33
-4.592417262116641 -2.4070315593004543 0.2122694571807726 57 48 33
-4.609135119708086 -2.4089119350284562 0.20479949301880196 57 48 33
-4.647326277665784 -2.4074785889964776 0.19687395596335122 57 48 32
-4.662195943999782 -2.409732451429172 0.18930237711778708 58 49 32
-4.700588986870484 -2.408392287801383 0.1811742063603452 59 51 32
-4.709564814573103 -2.411631390694638 0.17360688637797406 61 51 32
-4.716965810474683 -2.4151302607065395 0.16604626995744942 59 48 30
-4.722235290961721 -2.4189689018912337 0.15851358344342703 61 53 32
-4.726794320615832 -2.422927720890179 0.1509791519249133 60 52 31
-4.726816150027643 -2.427577092754964 0.14355632690104558 56 49 31
-4.742574472473983 -2.4298911340642992 0.13565112492834208 48 39 26
-4.923348673452376 -2.4127021040904024 0.11473418148543901 31 29 20
-4.8450333137278 -2.4289758914452677 0.10971424869009527 32 28 24
-4.726475879451278 -2.450945873571698 0.10636787629938715 32 27 26
-4.627637240597021 -2.4698621202291586 0.10262032855179726 35 30 26
-4.582719610601993 -2.4808815182127533 0.09705217819542322 37 33 29
-4.366805804182302 -2.516148487314649 0.09852612573161856 39 35 32
-4.121360418160332 -2.5551983178831366 0.10186198290230863 43 39 36
-4.138637426263768 -2.5569081189860436 0.09451461697340524 48 44 41
-4.1600468432054045 -2.558076382310349 0.08692616474992465 51 46 43
-4.175780355125016 -2.5600739229643015 0.07953249992166023 56 54 50
-4.55005875169577 -2.526379591658936 0.0332039527730541 88 88 89
-3.6137208138026624 -2.6564047817423777 0.07615073098986269 93 94 95
-3.5437752350326948 -2.669408307798654 0.07410970350837343 99 101 99
-3.4389848140793022 -2.6868908801637232 0.07424072246545232 108 109 109
-3.367054557444032 -2.6998705636215545 0.07276842226399416 111 112 114
-3.3397430032166895 -2.706905890219407 0.06884816007773786 114 117 118
-3.3910178797656854 -2.703725412576805 0.060211249241805875 118 122 123
-3.2506432048210696 -2.725262444320406 0.06338935867715578 122 126 125
-3.159917674562087 -2.740210294550421 0.06380306072494646 123 127 126
-3.0545044224723052 -2.7568523801145157 0.06544142189010926 128 130 129
-4.666796776018659 -2.562114412162729 -0.05501772275981032 133 135 132
-4.622549869051788 -2.572296644727009 -0.05942971868747393 135 137 134
-4.579035268846092 -2.5823104400626042 -0.0637688271307848 138 140 138
-4.983435486759383 -2.5376164910358505 -0.10060446062053874 140 142 141
-4.991891062697388 -2.5466242123717753 -0.1172351528508715 144 146 143
-4.623780954398218 -2.6002040238460262 -0.10427861583278708 148 150 147
-4.535581469957355 -2.615240097776111 -0.10468110491223315 152 154 153
-4.481821658187949 -2.626107386552818 -0.10764224960397173 153 154 156
-4.135598684401077 -2.6706377210436596 -0.08610188334200819 156 157 159
-4.137643013850024 -2.6746479671864507 -0.09304593782430315 158 159 161
-4.13155975062145 -2.6795884723103356 -0.0993007297395696 162 163 165
-4.134901294894432 -2.6834595991115635 -0.10636971990371302 163 164 166
-4.134885961434772 -2.6877153728581966 -0.1131547138214235 164 165 167
-4.859816525673109 -2.61169168748036 -0.18571912008296376 166 167 169
-4.738478442268603 -2.6299575838516778 -0.18241295760833331 167 168 170
-4.383116495014223 -2.6824826666482533 -0.171182635442084 173 174 178
-4.3092368733692625 -2.6948255718149388 -0.17111785494780896 172 173 177
-4.689570940021544 -2.6592991805621247 -0.2161430309014305 174 175 179
-4.691907402243367 -2.663861911466822 -0.22404656060992534 175 176 180
-4.694983449460575 -2.6683566748950405 -0.2320394250407274 176 177 181
-4.693079617219716 -2.6733704162159175 -0.23952860514655772 178 179 183
-4.702741532475874 -2.6772128203618815 -0.2482418075570012 179 180 184
-4.704453556292833 -2.681875336807215 -0.25613755040720765 179 180 184
-4.694418264541097 -2.687712866445271 -0.2627665848748093 179 180 184
-4.694980486392781 -2.692491881076421 -0.2705407226574732 179 180 184
-4.681579437292973 -2.6986374919593525 -0.2767612438082714 181 182 186
-4.688077395859857 -2.7028401659985937 -0.28520314810262426 181 182 186
-4.8000747327647915 -2.6969727153522123 -0.3057904733755532 181 182 186
-4.796972778488714 -2.7022172685792185 -0.3133274887597244 183 184 188
-4.755625390973503 -2.7110436092801606 -0.31635179119440715 182 183 186
-4.7565597929712835 -2.7158736261959517 -0.3243068101517843 183 184 186
-4.82498020137438 -1.8561434473705658 1.0456800214062743 198 198 200
-5.133716514011098 -1.7816136924684018 1.083019518982077 196 199 201
-5.13639165968463 -1.7854950494650792 1.0761278065753925 194 198 199
-5.1475552480022815 -1.7872308498086882 1.0704163907328201 190 191 186
-5.071484539425088 -1.8110473216604563 1.0525256247178665 166 163 149
-4.974667470879733 -1.8399704430019577 1.031968866063779 94 80 55
-4.960298758080121 -1.8480246793412487 1.0229226663866418 94 79 51
-4.9569412289723145 -1.8533014871874403 1.0153983296395162 106 88 54
-4.932814902096084 -1.8637591237343192 1.0050956942873237 120 101 63
-4.940060288578441 -1.8663771437818073 0.9990118343773806 121 101 62
-4.930908383624053 -1.8730754280172452 0.9907505314821647 91 69 34
-4.907997743755571 -1.8831612358182408 0.9807198111921651 60 42 14
-4.887853050318235 -1.8925312794818656 0.9711002055283393 39 28 9
-4.914704668920123 -1.8903381280970821 0.9675121766674224 28 23 10
-4.925514686559537 -1.892116377035333 0.9618263787467394 19 15 10
-4.918732067135498 -1.8982040327598733 0.953913266470787 8 7 5
-4.91583705641731 -1.9033394721330423 0.9464922276468255 9 7 7
-4.923203668279206 -1.9059894619316764 0.9403254360333488 9 7 8
-5.023520143528434 -1.918016180981042 0.8946941937010056 9 8 6
-5.028021233460103 -1.9215150947332047 0.887930328457232 9 8 6
-5.021243656910804 -1.9276608072156154 0.8799233564254234 9 8 6
-5.009162201565158 -1.9350336371012027 0.8713597904304855 11 10 8
-5.002027805965639 -1.9412418932818942 0.8633472661479391 10 9 7
-4.975548812487504 -1.9519134060861807 0.8533243902432401 7 6 5
-5.015253813213242 -1.9473002813204439 0.8502025515935925 6 4 5
-5.018472905867649 -1.9511303271505045 0.8432491252084564 6 4 5
-4.994862679903787 -1.9611033604424832 0.8335826920523999 8 6 7
-3.9872946141705032 -2.2174721041095142 0.6907834877791699 8 6 7
-3.979495129562819 -2.2229293164953527 0.684143408450995 7 5 6
-3.9774777433294175 -2.2270983210732043 0.678031133819295 8 6 7
-4.955686380257495 -2.020033924432098 0.7499952430491066 9 7 8
-4.962458587370113 -2.023118851276726 0.7432920624837709 8 6 7
-5.045666842800415 -2.0375309426995796 0.6983721965630896 6 4 5
-5.071719096893898 -2.0366883761838324 0.6928425095659849 7 5 6
-5.079796232201663 -2.0396822324044432 0.6859402368752678 7 6 4
-5.083647394221302 -2.0435805783115857 0.6787112164482254 8 7 5
-5.081609297412357 -2.0487201879284855 0.6710574784713013 9 8 6
-5.0824090830162305 -2.053269245959588 0.6635963177794195 13 12 9
-5.120468895554312 -2.0500995077782638 0.6586080430028829 18 17 13
-3.831719652519201 -2.3318511221849834 0.549529445859962 81 76 73
-3.8364220724655325 -2.334553487266344 0.5439819899823606 99 94 90
-3.8403245746411554 -2.3374285315717374 0.5383703393623724 102 97 90
-3.8018032490163565 -2.34885089770021 0.5303275224272155 86 80 68
-3.8118653176831128 -2.350474186369403 0.5250860043425263 77 69 54
-3.817190963786653 -2.3530627666546606 0.5195554897031831 80 72 53
-3.8187652746988707 -2.356408643747755 0.513807610884941 83 72 55
-4.379367328205745 -2.249197741897216 0.5367916890321811 81 69 51
-4.403823543742116 -2.2485353329828985 0.5313959040130372 85 72 51
-4.46404784535841 -2.240906902465649 0.5276668229580768 91 80 57
-4.41789480664246 -2.254147848533971 0.5187388329259703 91 81 56
-4.204063697820509 -2.2998905127199247 0.5022436389998679 86 76 51
-4.206925651347808 -2.303350297314179 0.49597453880502207 83 72 50
-4.190187491882602 -2.310592214770787 0.48884805005462506 89 78 56
-4.180230459101767 -2.31650827683937 0.4820458254958948 69 58 37
-4.171460657159553 -2.3221835593106603 0.4753141597438324 59 48 29
-4.31834973885055 -2.2982830122701148 0.47465713258721864 54 44 26
-4.2966947943099525 -2.3065061408118086 0.467263854603146 59 52 34
-4.2765245891658035 -2.3144151799343957 0.4599794924899472 61 55 37
-4.275410944609418 -2.3187228531554327 0.4534078053176058 65 60 42
-4.2543921545090555 -2.3267424997050945 0.4461710153234175 60 54 42
-4.267185179459356 -2.3284549998582182 0.44006689159954826 58 51 41
-4.2808379379559724 -2.330034462272578 0.4339480036604835 58 51 41
-4.260721466062639 -2.3378473428595257 0.42680272193059543 60 53 43
-4.295571384992194 -2.3355746554921573 0.4212315148797581 61 55 43
-4.300027516083475 -2.338898896284022 0.4147578992437082 62 55 43
-4.318975262045014 -2.339609293087409 0.4086272965278934 58 50 39
-4.319340574295481 -2.343705991094812 0.40200170974628024 58 50 39
-4.327095221001204 -2.3464811935875733 0.3955329941160741 57 49 38
-4.334181487677634 -2.3493927040729985 0.3890233518531121 57 49 38
-4.3509581646140605 -2.350599019150675 0.38267509166702074 57 49 38
-4.376705115551906 -2.350253159305591 0.3764343041828264 57 50 40
-4.3914203910553224 -2.351895976500698 0.3699341523948625 56 49 39
-4.390452230396252 -2.356311977481462 0.36315143661328775 58 51 40
-4.396528644044918 -2.359503474260868 0.3564619568371292 60 53 42
-4.408891935831812 -2.361620450194748 0.3498265524474282 58 52 40
-4.420319706055816 -2.3639239600592385 0.34314064411537126 58 52 39
-4.452454650020816 -2.362702199454284 0.33661070217345435 59 53 39
-4.436249081212448 -2.3697831004399106 0.3296003408803043 60 57 41
-4.460276384829336 -2.370014722369752 0.32289281756763377 60 55 40
-4.475118377136541 -2.3718423392909727 0.3160647087390831 64 58 43
-4.49481513033254 -2.372885150864953 0.3092067243393106 63 56 41
-4.495386984012491 -2.3771591464057407 0.3022440797025927 63 56 41
-4.497049187669637 -2.381256605871869 0.2952751611435682 65 57 43
-4.496859049685437 -2.3856664237822716 0.2882970584698361 60 53 38
-4.508139754185456 -2.38819534071544 0.2812906975567908 61 55 39
-4.515943438856439 -2.391315942109335 0.2742585573881673 60 54 38
-4.521439686347071 -2.394828898495145 0.267209790129753 59 51 38
-4.529260921453628 -2.397979619519451 0.2601250162438571 57 50 38
-4.533858587613553 -2.4016658080373414 0.2530372003440875 57 51 35
-4.551535600452692 -2.4032742478968183 0.24581053605303094 58 52 35
-4.562345076169504 -2.4060090105841945 0.23860041268006427 55 49 31
-4.570199961083688 -2.4092335019539415 0.23138918863376579 56 48 32
-4.589770843039307 -2.410635625296737 0.22399174651427267 57 48 33
-4.604487001686125 -2.4128347238792087 0.2166047739730983 58 49 34
-4.626326556028243 -2.413958049640571 0.20905319999689542 56 47 33
-4.646818405240737 -2.4153324616918517 0.20145697355626924 56 47 34
-4.670844194062132 -2.41620528461476 0.1937279192557626 55 46 31
-4.69066120481517 -2.4177672483949713 0.1860107988836257 56 47 30
-4.724982617883265 -2.417169375050871 0.17790973299420054 58 48 31
-4.730202788988749 -2.4210238385146896 0.1703895086125522 63 52 34
-4.735426983342458 -2.424890890394054 0.16284815979218092 60 52 31
-4.74191856535926 -2.42858242244858 0.1552522150752873 59 51 30
-4.749192517950935 -2.4321736904461018 0.1476096804904925 54 47 29
-4.910195527532441 -2.413168616483268 0.13542713218102476 51 41 29
-4.886189257950067 -2.42150653059591 0.12847118807510127 40 35 24
-4.863309960450308 -2.429640884391433 0.12154237976753834 32 31 22
-4.848027635105646 -2.436640656699663 0.11441776902684819 32 28 24
-4.656360129537465 -2.4689197341415907 0.1135337847730169 33 28 27
-4.591604911168039 -2.4827624232553305 0.10855398087452461 34 29 25
-4.505597759855753 -2.49950040708062 0.10456595740110441 36 32 28
-4.373739249219803 -2.522536758727068 0.10263527408439743 38 34 31
-4.132808928963505 -2.5605836335738816 0.10555417751529861 42 38 35
-4.153919685639221 -2.5617995044720954 0.09804736317456264 47 43 40
-4.17586632668659 -2.5629420873630644 0.09043684832563947 52 47 44
-4.191887630896156 -2.5649403608914794 0.08302565026603625 56 54 51
-4.73854125095629 -2.504174273702678 0.03566668714557797 77 77 75
-4.575051094310584 -2.530704957409569 0.03651120719828582 86 86 85
-3.5662948055156583 -2.6725493999722083 0.0765515075740063 100 100 101
-3.4731170715777115 -2.688374840713944 0.07590946304071944 107 106 109
-3.390175925161583 -2.7027036690631694 0.0749522852181237 112 111 116
-3.280334122820582 -2.7203459389308002 0.07581058099578597 115 117 120
-3.4048451135778492 -2.7078287295729524 0.06291437621642737 116 120 121
-3.1721956671435065 -2.7441782859689035 0.06635394140988105 125 129 128
-3.066106641044118 -2.7607538274936854 0.06792238569381237 128 130 129
-2.9660637117664495 -2.776384722595696 0.06940143244229657 132 134 132
-4.599009127082318 -2.5876090871117547 -0.06050131071425735 137 139 137
-4.984635267444478 -2.5508358249449343 -0.10362062698962671 141 143 144
-4.9697869788669795 -2.557612451940671 -0.11050409245097725 145 147 144
-4.972846780480681 -2.562259145598979 -0.11871705157581802 146 148 145
-4.589170513752549 -2.612041619098367 -0.09684587475465656 149 151 148
-4.5342018661319425 -2.623063315757863 -0.0999113333157231 150 151 151
-4.4803889611251515 -2.633853301963424 -0.1029123807000838 154 155 157
-4.133128237322151 -2.677963776248538 -0.08160767964009219 155 156 158
-4.135056893183426 -2.68198926586787 -0.08853218413087105 158 159 161
-4.134818557702987 -2.686264545172592 -0.09528314800471649 161 162 164
-4.135791951816176 -2.6904082612813114 -0.1021440822610864 163 164 166
-4.136749485132519 -2.6945590225738574 -0.10901206090398152 164 165 167
-4.277975121177496 -2.69219689827197 -0.14250249452177788 170 171 173
-4.289156292726347 -2.695411710827806 -0.15057576258345295 172 173 175
-4.216729295664882 -2.7074652601245908 -0.15068027409392903 172 173 176
-4.138011135446721 -2.7200430244922207 -0.14996066661419327 173 174 178
-5.013488583341865 -2.643916538493721 -0.259581875690458 176 177 181
-4.717398339629368 -2.688548913643793 -0.2526076703747193 178 179 183
-4.710136287355419 -2.6941131951715764 -0.2595601678201982 180 181 185
-4.693769405530286 -2.7005499300971554 -0.2655013187190527 181 182 186
-4.685472303629958 -2.7061852365915784 -0.27229396935476546 180 181 185
-4.68481988129061 -2.7110824971293863 -0.279926996281999 181 182 186
-4.684927039318856 -2.715911053622316 -0.28765090063331966 180 181 185
-4.742624429195783 -2.715382509330139 -0.30202901226043544 183 184 188
-4.745094734367099 -2.7200566212245363 -0.31013016154795414 183 184 186
-4.744742918958234 -2.7249968190314027 -0.31791092055102843 184 185 187
-4.830978805975767 -1.8624794631997155 1.0507785763182793 197 198 200
-4.886049508203894 -1.8528111636807758 1.0518433319756073 196 198 200
-5.125832385931492 -1.7965024969958925 1.0791089806197436 195 197 197
-5.146345040570932 -1.7958903016375345 1.0747461690100528 193 194 190
-5.074903676070183 -1.8184291169068518 1.057447660589369 172 170 159
-4.974829468386062 -1.8480267506043817 1.0363600399645716 101 90 64
-4.956852088132825 -1.856962133030386 1.0268102369509169 93 77 46
-4.95231382036651 -1.86252644753745 1.0191311499241418 107 89 53
-4.943557404409812 -1.8691329422835647 1.0108902172617236 121 102 64
-4.942656937916539 -1.8737861698555425 1.003715249799251 130 110 68
-4.930467458599215 -1.8812227847786842 0.9950458450612953 101 79 40
-4.90056532484755 -1.8929920239870648 0.9840866691428465 63 45 14
-4.8834396230827855 -1.9015882053520692 0.9748553564143339 39 28 7
-4.921442377346442 -1.8967137678102803 0.9727281584560115 29 24 11
-4.921996084884272 -1.9010084137863588 0.9657457651577024 17 14 8
-4.918980351779346 -1.9061720044939126 0.9583085666806348 8 7 4
-5.162842950909459 -1.8517391120053601 0.9815258574193715 8 6 6
-4.929683193124295 -1.9124687303661596 0.9454973771486281 8 6 7
-5.040725541964558 -1.922194773885606 0.9011163587293558 8 7 5
-5.031439093418399 -1.9289292816172963 0.8928095124457989 7 7 5
-5.022176621573561 -1.9356461284366278 0.88452454843639 9 9 7
-5.01390827763874 -1.9421209315983607 0.8763663053531334 15 12 11
-5.011540216049257 -1.9472253611228254 0.8688547777498503 13 10 7
-5.011844418728009 -1.951715639387297 0.8616258052417107 8 7 4
-5.009894346504706 -1.9567257467457269 0.8541557005690348 6 5 4
-5.013307634458932 -1.9605134573239185 0.8472364022626329 4 3 3
-4.982324684256229 -1.9721223854832712 0.8368137272049252 6 4 5
-5.008944870918795 -1.9706486053030368 0.8322335642993441 5 3 4
-3.9936315579072734 -2.2227239250254764 0.6950520025930635 7 5 6
-3.9899423193309955 -2.227270354147451 0.6887727560792849 7 5 6
-5.010944229936643 -2.0115200034479175 0.7666342769084897 9 7 8
-4.979776196262505 -2.02291702861108 0.7565971730480299 8 6 7
-4.988192412665564 -2.0256777318827472 0.7500113528368535 8 6 7
-4.969105162410167 -2.034399027073074 0.7410912378881764 7 5 6
-5.0832789136353576 -2.04257983815909 0.6983558514307531 5 4 4
-5.0861849498968885 -2.0466793894291695 0.6910720050436816 6 4 4
-5.087537594166244 -2.051111270903876 0.6836632017956918 7 5 5
-5.089328884988184 -2.0554581433076433 0.676275617137925 8 7 7
-5.087640632408237 -2.0605307819915497 0.6686378164373412 13 12 10
-5.092413686079843 -2.064274638266333 0.6614345218384341 16 15 12
-3.8589006336760994 -2.332796390482354 0.5548433118926566 77 72 69
-3.865598700688703 -2.3351286390257346 0.5493867950447269 100 95 91
-3.8718032992197533 -2.337574353424207 0.5438780134403811 101 96 88
-3.817408030661118 -2.3521368766660697 0.5348444896925926 88 81 69
-3.822723310272199 -2.354734194004699 0.5293257224513286 78 70 54
-3.8270296905046965 -2.3575433519244346 0.5237321699653217 80 70 53
-3.83322866670317 -2.359989795334065 0.5182236905538482 82 70 54
-4.439846008772203 -2.257249154344503 0.523968325380604 92 81 55
-4.209751835011718 -2.305820778121555 0.5065011766925236 87 76 51
-4.206212686986753 -2.3105195752950487 0.4999402612712478 84 72 48
-4.20558433077008 -2.3146593314305988 0.49351208229447696 86 74 53
-4.156477383247643 -2.3280192140651144 0.48501743335078706 73 62 41
-4.176545568748669 -2.3282034182978872 0.47950217971301434 57 46 27
-4.353290164502789 -2.298908506701047 0.4801573591420589 55 44 26
-4.3328816771261085 -2.306896772872739 0.4727482368822846 59 51 33
-4.272149239765129 -2.322378776132309 0.46389963245176924 59 52 34
-4.282426955501556 -2.324566131723394 0.45774236563119497 65 60 42
-4.273163755013347 -2.3303876683030404 0.45088318290488294 61 56 42
-4.287584405027614 -2.3318380969410204 0.44482128202966087 56 50 39
-4.281503049035156 -2.337071678268767 0.438070344815396 58 51 40
-4.255832214507104 -2.345868002696222 0.4307438777939314 59 53 42
-4.293890743698514 -2.343063777943407 0.4253057918046059 62 55 44
-4.30012506447458 -2.3460737876266013 0.41889075560033784 63 56 45
-4.308153904156618 -2.3487757614109146 0.41249924903405777 61 53 43
-4.330219282580328 -2.3489865388986 0.4064219930640174 57 49 39
-4.325773859351647 -2.353954264231167 0.3996686886753422 59 51 40
-4.345706055598891 -2.35460369160233 0.3934480516494989 57 49 38
-4.35944080339036 -2.3563828931772943 0.3870411283823947 58 50 39
-4.372353554750743 -2.3583337522584653 0.3805747688337231 58 51 40
-4.386756020528112 -2.3600511896295604 0.37409244490197 55 49 38
-4.399666661465519 -2.3620562319792255 0.3675403591428861 58 52 40
-4.412828142117215 -2.3640442907605914 0.3609500450510399 58 51 40
-4.422385678486114 -2.3666776789222506 0.3542699640043001 60 52 42
-4.432279631246263 -2.369274016930279 0.34756133847822923 59 51 41
-4.444131472112311 -2.3715588121438356 0.34083931623813557 59 51 41
-4.45185834020428 -2.374565107817138 0.33404181770447994 62 57 42
-4.459643678124079 -2.377578778764444 0.32721736116288014 60 55 41
-4.472771260600555 -2.3797166558354 0.3203973138702405 62 56 42
-4.4866093219778485 -2.38176327582578 0.31353770023623184 62 56 41
-4.500453708834902 -2.3838370384491774 0.3066332217608123 62 55 40
-4.513306479733749 -2.3861021560588 0.29968207968294336 65 58 43
-4.507322098846258 -2.391475626508928 0.292683164792646 62 56 41
-4.517845569378361 -2.3941558896343507 0.28567709934208807 59 50 37
-4.523325378871892 -2.397674651587904 0.27864831460711703 60 51 38
-4.528873117233808 -2.4011958271550857 0.2715980109168392 60 50 38
-4.537596898192022 -2.404222259417851 0.264509042193962 59 49 37
-4.538803042040511 -2.408464104348849 0.2574409527499637 58 50 34
-4.553228129332879 -2.4106201461394683 0.25025435794776096 61 53 37
-4.562578826258908 -2.413604003738241 0.24307005039074414 58 50 34
-4.56894387658211 -2.417075279838834 0.2358865280729705 58 47 35
-4.581042918673752 -2.41966985734579 0.22860691893668528 59 48 35
-4.597117259339148 -2.4216751956365052 0.22123113487346502 58 47 33
-4.615805797276479 -2.4233113123786154 0.21376301691111022 56 45 31
-4.656995543864939 -2.421546391650175 0.20585528482921878 54 45 31
-4.659215249284127 -2.425779376611349 0.1985375639037188 56 47 32
-4.683868618101378 -2.426632531893436 0.19076403591528268 55 46 30
-4.7346482908316405 -2.423612574317329 0.18235928682052327 56 47 28
-4.739245638511184 -2.427578254654687 0.1748485049448023 59 50 31
-4.747304851104011 -2.4310426746954517 0.16723506106934383 58 50 31
-4.750737666010896 -2.435207276446056 0.15971056238742376 56 48 29
-4.751427636311331 -2.439783595968763 0.15224420673556982 56 48 31
-4.7529764756849096 -2.44423991206227 0.14474544456304006 49 41 27
-4.933247029565171 -2.4228514667429586 0.13189376279188858 41 35 25
-4.910810907809157 -2.4309312100047817 0.12486659390446797 32 28 20
-4.8510232422327775 -2.4443086268010816 0.11912325778644894 30 26 22
-4.6879064118524685 -2.4722444046493 0.11708612644769745 31 26 23
-4.663744359601234 -2.4802938169636275 0.11055635795840124 36 31 28
-4.540123884720763 -2.5022353771371892 0.10778639070076568 36 32 29
-4.380687267742494 -2.528939088387588 0.10675343489657552 39 35 32
-4.119161917847316 -2.5694688349738577 0.11026998418052725 42 38 35
-4.134772894238091 -2.5714614761231824 0.10303498975355119 45 42 39
-4.192236943227056 -2.5677763944932206 0.09394996647473186 50 47 43
-4.20935723331278 -2.5696668644044185 0.086484919190295 56 53 49
-4.766689988765282 -2.508380823592528 0.039046249121456045 76 77 74
-4.603580769829271 -2.5346357677531204 0.039683508389494415 83 83 83
-4.450341370908921 -2.5593020353110054 0.040282169944046764 94 94 94
-3.4948606049554516 -2.691559053155637 0.07831680163896926 107 107 109
-3.372823948153216 -2.7107903065982333 0.07945029736871012 113 112 117
-3.077778815802907 -2.7646786892921162 0.07041824250039952 127 131 131
-2.978843223331208 -2.780030621529802 0.07171760093173363 129 132 131
-4.068998198348897 -2.6546949303643723 -0.012381384562872189 134 138 134
-4.980752192921862 -2.5646568985838014 -0.10626264403260688 144 145 146
-4.978394724485696 -2.5699488883968202 -0.11407557806534085 146 147 147
-4.7678159492588605 -2.5992134884792004 -0.10587849271188476 149 151 151
-4.532824783984312 -2.6308763504885473 -0.09514777687153675 152 153 154
-4.1350221566211145 -2.6847867649761548 -0.07747635976393985 158 158 160
-4.134842287689237 -2.689053202168215 -0.08422295244333333 159 160 162
-4.129395463097956 -2.693904503923661 -0.0905303020823931 160 161 163
-4.131156410595349 -2.6979597076360857 -0.09744557056130176 164 164 166
-4.134747469065749 -2.701822984642539 -0.1045314500883987 164 165 167
-4.279510277852455 -2.6993047088825337 -0.13819039592322802 170 171 173
-4.295852331818861 -2.701998807697318 -0.14673254679485126 172 173 175
-4.2188845082466235 -2.714418986090281 -0.14648123064487417 172 173 176
-4.144340586575026 -2.7264480154027537 -0.1462378166446614 173 174 178
-4.095375012173948 -2.7357313775738663 -0.14827825801822903 175 176 180
-4.99463557021226 -2.6542267951861755 -0.2524963057244576 177 178 182
-5.00899697371327 -2.6579088120561583 -0.2620961210424748 177 178 182
-4.735192034458489 -2.694785436463803 -0.24956747447603145 179 180 184
-4.72506561402322 -2.7006325890722986 -0.25624282662197073 180 181 185
-4.727213045598516 -2.7052942797473025 -0.26422436408381533 179 180 184
-4.741287504926618 -2.7088382395957677 -0.273529687060204 179 180 184
-4.759016364270316 -2.712071522688044 -0.2832912355122852 182 182 187
-4.775436797939364 -2.7154636075187377 -0.29296517628957464 182 182 187
-4.731960425313795 -2.7243736379938492 -0.295839512649964 182 181 186
-4.731647319253868 -2.729295033630326 -0.30359431808522497 183 183 187
-4.731845878464198 -2.734173998394997 -0.31141470190096054 182 183 185
-4.83559779188942 -1.8691773898273367 1.0556823758475322 198 198 201
-4.9905082069116276 -1.834404470443829 1.071244692549147 197 198 200
-5.103367091923841 -1.8104668714077543 1.0803618025893036 197 199 198
-5.089445066966037 -1.8185007442199597 1.071154291827358 193 195 191
-5.0789494912662425 -1.8256589597599482 1.0624604521074448 177 175 165
-4.98614802160415 -1.8532996853113137 1.0423050756524272 113 104 79
-4.953742476164511 -1.8657999803155354 1.030735779497897 93 76 46
-4.952261647934822 -1.8706001201123583 1.0234797256881067 108 90 56
-4.957332906403806 -1.8737858415180582 1.0171104362561925 122 104 66
-4.950374800886252 -1.8799391321947847 1.0091074156514335 133 114 71
-4.935887454912822 -1.8879280389736472 1.0001165149481663 115 94 52
-4.895408471910615 -1.9022395191689028 0.9877378604011877 69 50 17
-4.886472371853923 -1.9088152673974275 0.9795704043680349 42 30 9
-4.930483762566842 -1.9025458209860442 0.9782492464332544 28 22 9
-4.915202734234225 -1.9106753020520677 0.9692384018696332 19 15 9
-4.955335659649196 -1.9054435473791445 0.9672618085150615 8 7 4
-5.168763566363452 -1.858711451247128 0.9868315176574922 7 6 5
-4.935949514056572 -1.9190129704129697 0.9506505803143617 8 6 7
-4.972809856250609 -1.9461972325693093 0.8979463244356516 8 7 5
-5.034858530613112 -1.9363477425910154 0.8976914153949727 7 7 5
-5.024212949126055 -1.943374071334444 0.889245877496669 11 10 8
-5.009850609007228 -1.9512401900630414 0.8804182282491124 15 11 10
-5.012705870264684 -1.955143165421446 0.8734766187950136 19 15 12
-5.013016807495675 -1.959634928220925 0.8662513125445386 9 7 5
-5.011284351578487 -1.9645951881790733 0.8588051141123783 9 8 6
-5.012491360722637 -1.9688904217794347 0.8516624888135054 6 5 4
-5.001651728486028 -1.9759089640929484 0.8432791367051082 8 6 7
-5.013864099161335 -1.977731654168873 0.8372455430925605 5 3 4
-5.033146901911014 -1.9779954334665393 0.8318773895473792 6 4 5
-4.000432407651627 -2.2316290596128843 0.6934210255656372 7 5 6
-5.035185935734227 -2.0144627554934718 0.7733417810661338 9 7 8
-5.011577823302854 -2.0241998281637463 0.7639105485782169 6 4 5
-5.0351804436144665 -2.023730783208782 0.7585995823482483 8 6 7
-5.003422335579693 -2.0351833409114306 0.7485308786247236 6 4 5
-5.090581791194555 -2.0541038313953797 0.6960644298055028 8 6 7
-5.0924741583760476 -2.058431515813734 0.688694298673105 7 5 6
-5.0935775414161935 -2.062928652183543 0.6812570792990982 8 6 7
-5.097557827295086 -2.0668412868358104 0.674011389503677 14 12 11
-5.097388643446614 -2.07161201352468 0.6664655197520402 16 15 13
-5.135981808219148 -2.0685023169209393 0.6615082973577815 22 21 17
-3.8861254685885678 -2.333811105551014 0.5602040120591281 80 76 73
-3.890877893584898 -2.336567351409858 0.5545997557198075 103 98 93
-3.898873906811682 -2.3386890443934094 0.5491725482776102 106 101 92
-3.8428548773161175 -2.3535152144422606 0.5399631550579569 95 88 76
-3.847679292669579 -2.3562407961114937 0.5343892045730909 80 72 56
-3.851422738356732 -2.35919000774113 0.5287369113438347 82 71 56
-3.8509487805704614 -2.3629735149592 0.5228397274154679 80 68 52
-4.947352064612736 -2.1578196181456124 0.5678299718540838 83 71 51
-4.920265160466554 -2.167700797117271 0.5590622545594559 88 76 53
-4.205223820779389 -2.313717181112702 0.5102794976332365 91 79 54
-4.200698012429833 -2.3185957942089046 0.5036800394309748 83 71 47
-4.200837311855078 -2.322585648356938 0.49729721836355334 83 72 50
-4.1846711457595545 -2.3296544436264934 0.4902008684641408 77 66 46
-4.170978003730445 -2.3362338163394614 0.48324844304519066 54 43 24
-4.201203857969078 -2.3345852432216607 0.47811415796086965 54 43 24
-4.3651037764472465 -2.3081303203239427 0.47813720905046897 59 50 32
-4.26973185377739 -2.329961482459258 0.4678833582867292 61 53 35
-4.283382359733949 -2.3315423869987075 0.46186533019753573 62 57 39
-4.236022073951851 -2.344337454745736 0.4536649334935243 61 56 42
-4.2443395393684975 -2.346892359593589 0.44746607717335696 58 52 40
-4.283703421198256 -2.343827039956142 0.442240471163291 58 52 40
-4.251212645506639 -2.353819903696313 0.4346818772717753 60 54 42
-4.278272310172486 -2.353049223169961 0.42896357492589354 62 55 45
-4.305787354847089 -2.352248009536723 0.4231769808813275 62 55 45
-4.314358149129054 -2.3548721270810193 0.41680300916718127 61 54 43
-4.334070614974354 -2.3555404490867238 0.4106810436382182 58 51 40
-4.340892329855749 -2.3585196584071912 0.40419105585040316 57 49 38
-4.346920079579694 -2.361653527095348 0.39765879018536876 58 50 39
-4.3580017102178354 -2.3639192913092906 0.391210533864752 58 50 39
-4.373876708855267 -2.3653756400464623 0.384819779496254 57 51 39
-4.40274160974295 -2.3646192730032776 0.37861543066804315 56 50 38
-4.39878318319648 -2.3695591032699026 0.3717729811877275 56 50 38
-4.40497748388573 -2.3727592652164473 0.365092514133754 59 52 41
-4.413607219286332 -2.375559547436472 0.3584231730702401 56 47 38
-4.424136084713324 -2.378057215363585 0.35174785934168873 62 53 44
-4.436689256627017 -2.3802362935893955 0.34505986272877687 59 50 41
-4.438832692792232 -2.3841840556135327 0.3382296816942032 60 54 41
-4.448511189626976 -2.38688418281276 0.33145052462269065 60 54 40
-4.464234461566394 -2.3886037165841874 0.32468003217885877 60 54 40
-4.476516047524532 -2.390921802338179 0.31784059886476124 65 59 44
-4.491261153012511 -2.392861625529846 0.31097069549920087 62 56 40
-4.505810714691614 -2.3948631614762523 0.30405280156092984 61 55 39
-4.520676301099215 -2.3968430108973564 0.29708830540474973 60 54 38
-4.534616373881967 -2.399002161889144 0.2900760896699335 60 50 38
-4.529886893694761 -2.4041821241190964 0.2830495124666592 58 48 36
-4.536033426387999 -2.4076237068519966 0.2759972511213773 60 50 38
-4.540956137611024 -2.4112738085860386 0.2689273455556356 58 48 36
-4.533897372080949 -2.4168243689079443 0.26190898263944695 58 49 35
-4.5535992127770335 -2.4181728310193438 0.2547077747780264 61 52 38
-4.561401988508109 -2.421413980107914 0.24754932338802993 59 50 36
-4.571427364649774 -2.4243285074512575 0.2403400784796359 58 48 35
-4.6029789849082485 -2.4239500619538044 0.23284503987645677 56 46 34
-4.619308904295076 -2.425962250217013 0.22545330820723564 55 46 31
-4.619675628015245 -2.4304367409550176 0.2182411619585547 56 46 30
-4.6374243666726365 -2.4322861215497515 0.21074431462218723 57 48 33
-4.652431040070564 -2.4345835554636355 0.20323839697963453 55 46 30
-4.667359912434383 -2.436923434191288 0.19568492401809734 54 45 28
-4.690466208739688 -2.4380792260167183 0.18791653352989068 58 49 29
-4.70555063338503 -2.4404650145868207 0.18025010776749717 56 48 28
-4.72144727754879 -2.4427626919460486 0.1725154102571611 57 48 31
-4.75157829216604 -2.4430171173251884 0.16437816770005442 57 49 31
-4.753906421633615 -2.447359349733271 0.15687306419904057 54 45 28
-4.766487929933892 -2.4502329398622607 0.14907296387971503 47 40 26
-4.969614974984154 -2.425865381405522 0.13570859804237423 39 33 23
-4.94967975270248 -2.4335895971536354 0.12853685348091903 33 28 22
-4.854020627554368 -2.451979734451745 0.12383070062031432 32 27 23
-4.730369103253899 -2.4741284472415304 0.12032906424916745 34 29 25
-4.679329697098646 -2.4859290184648315 0.11465488596509688 35 30 27
-4.576858124790946 -2.504765519621986 0.11098692974377422 35 32 28
-4.142650577714798 -2.5690738679341862 0.12011539176737296 38 35 32
-4.147027625136319 -2.572631593455205 0.11333247190837814 40 37 34
-4.15878461383487 -2.5751985319108375 0.10623178995892313 44 43 39
-4.211210180413218 -2.5723051100867758 0.0973807170570995 50 48 43
-4.231005132101355 -2.5738824714538664 0.08979148051625674 56 53 48
-4.252875499082174 -2.5752234894238604 0.08204560738882694 62 60 55
-4.494463298388926 -2.547578611983848 0.06402465379610156 67 67 64
-4.792716205439618 -2.5177252447969907 0.034975044586102344 84 84 84
-3.6118444075354708 -2.6789617423045455 0.08152583697966154 100 100 102
-3.513969570909536 -2.6951421195599394 0.08090359400263314 107 107 109
-3.399049441455424 -2.7133024641998738 0.081505934512494 112 111 116
-2.927366050934954 -2.7791621657184242 0.09778389918043284 120 121 123
-2.819777797019546 -2.795561376128424 0.09930628341294401 123 126 125
-2.7105772246113524 -2.811961818286984 0.1012404763774013 124 128 127
-4.070349229524319 -2.657300148233445 -0.0016806113896987718 130 135 131
-4.048757693370075 -2.6640265155814835 -0.006839916816180791 132 137 133
-4.044848543427141 -2.6686252315944254 -0.013152366471168131 135 139 136
-4.005775125586525 -2.677345259472407 -0.016996830007670383 139 141 138
-4.990457948046469 -2.571874663451812 -0.10191235326209602 144 145 146
-4.975679733394601 -2.5785959745593376 -0.10881211328206297 146 147 148
-4.965893078983793 -2.584726817717764 -0.11605353571840249 148 149 150
-4.569938396985226 -2.63899145914415 -0.10076431945632369 154 154 156
-4.120836729307077 -2.6933916460953924 -0.0720516545528096 156 156 158
-4.1283386972717695 -2.696802072185532 -0.0794021962456537 160 160 162
-4.123563170956578 -2.701567022277948 -0.08575675402546334 161 161 163
-4.13457842514652 -2.7046217010520044 -0.09344298401076556 163 163 165
-4.138609808762919 -2.708447954103825 -0.1005643708574131 165 165 167
-4.314739556105984 -2.6984633187895986 -0.1298808386663195 168 169 171
-4.280651802313141 -2.7064529647629523 -0.1338428759147854 170 171 173
-4.247736458884724 -2.714260915566149 -0.13781674678176814 170 171 173
-4.226879182174409 -2.7207766962515745 -0.14282948277446716 171 172 176
-4.165721655723327 -2.73134176877878 -0.143941619427431 174 175 179
-4.102687938621645 -2.741983240913771 -0.14469380728658876 175 176 180
-4.974021555058875 -2.65956205710525 -0.23718767938998675 176 177 181
-5.0868478801060455 -2.6535289970906475 -0.2565448114966098 176 177 181
-5.1013082840980095 -2.6573126034651304 -0.26627474829955267 176 177 181
-5.000697446813826 -2.672247679577552 -0.26421382423842155 178 179 183
-4.708733749662912 -2.7053057381173535 -0.2418762439629376 178 179 183
-4.7216020910439465 -2.7089350565084476 -0.2509521689997498 181 182 186
-4.734545376634023 -2.7125857831207694 -0.26008138318496643 179 180 184
-4.745178923384065 -2.7164795465765 -0.2690044744463522 180 181 185
-4.748416283058307 -2.7210771394463 -0.27714914131868085 182 181 186
-4.758228283544138 -2.7250870933798996 -0.28604623590349343 182 181 186
-4.7213487034794035 -2.7333209024018243 -0.2896802240281666 183 182 187
-4.721634281469735 -2.738179863292293 -0.29748316225247007 182 183 186
-4.728871416881206 -2.7424311869398257 -0.3061034426728111 184 185 187
-4.834408841960443 -1.8773453935672537 1.0597375334993864 197 198 201
-4.982581058261121 -1.8444961501295065 1.074449699369222 198 199 201
-5.113464798948566 -1.8162170878810877 1.0862733274912137 197 199 198
-5.082717349209324 -1.8284324602887878 1.0746399945169298 193 195 192
-5.081748739416834 -1.8332048946281472 1.067300174072264 182 180 172
-5.007655189725449 -1.8560792195291762 1.0496953219086074 130 122 98
-4.9666852911654304 -1.8706628784952302 1.0368848704399185 91 76 49
-4.962894028262699 -1.8760411284876382 1.0292965029760315 104 87 55
-4.96209278315099 -1.88068383454182 1.0221205098821757 116 98 62
-4.957874404164918 -1.8861630983925646 1.0144796831354412 130 111 68
-4.943565188327462 -1.8940946116846944 1.0054949886957851 118 97 53
-4.908476321317263 -1.9070456926377894 0.9937909992724567 75 56 22
-4.884597015538558 -1.9172323156298265 0.9836439775339281 47 33 11
-4.866968717622283 -1.9258768269378155 0.974366013085628 28 21 7
-4.911999929581148 -1.9194542693261059 0.9731781110929734 20 14 8
-4.953476566661321 -1.913960486967689 0.9714135925040295 7 6 3
-5.1791922495777225 -1.8646212376197497 0.9927108530528215 6 5 4
-4.9375728821208265 -1.9266734467239568 0.9552331317096996 8 6 7
-5.0335611284655535 -1.9402879390993164 0.9093049387804915 8 7 5
-5.027117976209134 -1.94633756897525 0.9013206088856249 7 7 5
-5.022156013185315 -1.9520404589050586 0.8935125366745345 8 8 6
-5.0091796104992685 -1.9595682848692417 0.8848321550549612 15 10 10
-5.013752790196902 -1.9630858173825627 0.8780843949326758 20 16 13
-4.9913862999062015 -1.9727197254779396 0.8684329880999024 12 8 6
-4.991793268378033 -1.9771776393726839 0.8612449436630694 10 7 6
-5.001936784064304 -1.9794496858939419 0.8550670552169284 8 6 6
-5.00796548834554 -1.982664488370212 0.8484321014702514 8 6 7
-5.015380531792043 -1.9855835399633388 0.8419163697537368 6 4 5
-5.014195234680887 -1.9904313588074407 0.834511573082136 7 5 6
-5.01901949579004 -1.9939493209126649 0.8276995925819057 6 4 5
-5.017398775959845 -1.9989014167435764 0.8202392525097073 6 4 5
-5.0101612659364765 -2.0050891682467076 0.8122364198085734 5 3 4
