ply
format ascii 1.0
element vertex 699
property float x
property float y
property float z
property uchar diffuse_red
property uchar diffuse_green
property uchar diffuse_blue
end_header
-2.7550319433208266 -1.1749263981690896 0.044670691942099605 72 67 63
-2.7140975199055353 -1.1506217458881578 0.035486402511799575 71 66 62
-2.731881268567157 -1.159826915597235 0.031728050185330314 71 66 62
-5.165196494615754 -2.545627202062587 0.24017796944279834 71 66 62
-5.116129694367531 -2.5159245893368323 0.22591029591025724 70 65 61
-5.061756655720356 -2.4832333675519003 0.21137895043970722 68 63 59
-5.034174570259849 -2.465818826831713 0.19925100922509476 66 61 57
-5.022586293711407 -2.4575152611830884 0.1885064649347057 68 63 59
-4.964500288830001 -2.4227973299107757 0.17415992535713465 67 62 58
-4.975758160543874 -2.4274971165828494 0.1653279403486927 67 62 58
-4.985512584897421 -2.4313351410187685 0.15633550110825412 64 59 55
-4.5143010426517725 -2.160807297912411 0.10356361480670362 65 60 56
-4.515643649802437 -2.160022006021229 0.0948081138599679 64 59 55
-3.7610361950466396 -1.7273217925670092 0.013322363702121809 62 57 52
-3.7552209792322633 -1.7227404900694345 0.005558758718141932 60 55 49
-3.7441332909859804 -1.7151859345009273 -0.002487797948157011 58 53 47
-3.7586952902542525 -1.7221094914197987 -0.009079213274292619 58 53 47
-3.7648475774082533 -1.724280663190107 -0.01617905832549671 59 54 50
-3.7747299503243563 -1.7272442803280235 -0.0305819857533296 58 53 49
-4.34935321200108 -2.0493606675222997 -0.01076269818247888 58 53 49
-4.365285500703533 -2.05682228231282 -0.01862367314351765 57 52 48
-4.352469894916074 -2.0481112349803805 -0.027805065620399416 58 53 49
-4.332102444129788 -2.0351652094631647 -0.03725632988070693 58 53 49
-4.345506821169322 -2.0411946304651214 -0.04529104750232493 56 52 49
-4.340625914318155 -2.0369533756621707 -0.05407376580305412 57 54 51
-4.342642570112188 -2.036582829923061 -0.06259486116413115 55 55 50
-4.351480405141564 -2.040033165973553 -0.07089708232705894 59 60 55
-4.3577768070053295 -2.0420531418891117 -0.07931963773763706 61 62 57
-4.31414975596906 -2.016121261547184 -0.089271121029455 61 63 58
-4.307619986886886 -2.0109723576549157 -0.09801540099387107 66 67 62
-4.324353763353638 -2.018834008909669 -0.10613061843010951 71 71 68
-4.303002242389607 -2.005402447772377 -0.11523749590095655 73 71 72
-4.3614632325552325 -2.0365544535616884 -0.12248958334943083 77 75 77
-4.380075056630549 -2.0454263466636395 -0.13078346004929398 79 77 80
-4.388070775339661 -2.0483635843198784 -0.13934956962708134 81 81 81
-4.372649495219188 -2.038241665838127 -0.14833587071763732 84 84 85
-4.362441107305519 -2.0310333673552843 -0.15719141875399179 87 87 89
-4.368103555462189 -2.0326669325624556 -0.16581346209337544 88 88 90
-4.359795058607764 -2.02652255392296 -0.17460978529751803 92 92 94
-4.217597302241204 -1.9459346112113174 -0.1845289278478729 94 94 96
-4.203532313668396 -1.936646780020001 -0.1930461263719232 96 96 98
-4.268208220534477 -1.971097367823749 -0.20114443337360066 99 99 101
-4.208995474417489 -1.9367423723045767 -0.2098378088088898 99 99 101
-4.1022920952451605 -1.876085172607824 -0.2183400128106212 101 101 103
-4.079571909842042 -1.8620549829095665 -0.22652914629973686 104 104 106
-4.0772734397168895 -1.8593530224540813 -0.23469821339982833 105 105 107
-4.053255371089662 -1.8446268373885621 -0.2427514956179213 107 107 109
-4.0468353981413285 -1.8396534597278689 -0.25083967034867016 111 111 113
-4.7920098759725045 -2.246932645041158 -0.2849055737815197 114 114 116
-3.5849182859565785 -1.5752296004178659 -0.2981755394467679 121 121 123
-3.5710288928938745 -1.5663166950581164 -0.30510426011514724 120 121 120
-3.553704043559385 -1.5542657644655589 -0.3190892104414139 120 125 122
-3.554126889121029 -1.553240742728277 -0.32629762865220147 123 127 125
-3.4793385294091643 -1.5109107974577165 -0.3311999511111081 126 128 127
-3.4800973397688044 -1.510094178402181 -0.338281911210493 127 129 128
-3.4824819134833818 -1.508932524309992 -0.3524983638756627 129 133 132
-3.480700025308414 -1.5067202126811083 -0.3595045803014806 129 133 132
-3.4823909386368324 -1.5064096103359672 -0.3666487781733536 129 133 132
-3.388865338998087 -1.4540045602647307 -0.36974540764421837 129 133 131
-3.3976779064975977 -1.4576170183153687 -0.3770395786677684 134 135 133
-3.3963469191125144 -1.455680229098213 -0.38389997677051424 137 137 135
-3.4009929058415116 -1.4570074517071752 -0.3910492732736722 138 138 136
-3.387766681051005 -1.4485777662370607 -0.397317167591492 138 139 138
-2.860810204825913 -1.1599884040124557 -0.3765375820512307 140 142 141
-2.8574471550903926 -1.1571299515394582 -0.3822235614387385 141 143 142
-2.8397283118882584 -1.1454348243154566 -0.39292173404793257 144 146 145
-3.476803459059395 -1.4897212418837162 -0.44442635082788495 146 147 150
-3.4765238344851137 -1.488326147121709 -0.45152329820618126 150 150 153
-3.476647705151582 -1.4871496227241585 -0.45864992137649785 151 151 153
-3.4781763170247566 -1.4867344951874664 -0.46587723173501217 152 152 154
-3.2081353929351746 -1.3367612728424385 -0.4671584701205669 155 155 157
-3.1971044870436747 -1.3296382720023194 -0.4729153655288666 157 157 159
-3.1935527311565255 -1.326567263774706 -0.4792189359190552 158 158 160
-3.1102641304278853 -1.2792813556126361 -0.4855074874314035 160 160 162
-3.114115805611501 -1.2802387841543208 -0.49225223372238636 161 161 163
-3.1083032896789775 -1.275979797039979 -0.49817973137088556 163 163 165
-3.102915669684144 -1.271953313230826 -0.5041250845100066 162 162 164
-3.0998165782225797 -1.2691628656627723 -0.5102595990272919 164 164 166
-3.091626700576423 -1.2636332468367586 -0.5159139967277806 165 165 167
-2.6107985058809913 -1.0009703621038282 -0.49315216182071914 168 169 171
-2.6073530243603793 -0.9972196728790667 -0.5036829736417273 170 171 173
-2.6034532314139125 -0.994178662167666 -0.508710275104693 171 171 173
-2.606175195756875 -0.9946861619616567 -0.5144446203551643 172 172 174
-2.596853887548604 -0.9887456728343096 -0.5188596196398092 173 173 175
-2.5920546181641866 -0.9852298266868272 -0.523749775461779 173 173 175
-2.4841920298817213 -0.9266304289406554 -0.5167957079876081 175 175 177
-2.4861542047435976 -0.9267683100379817 -0.5222340641882186 175 175 177
-2.801542443738948 -1.0942058706423698 -0.564922507734079 176 176 178
-2.803845697093859 -1.0944108876563805 -0.5710591337432609 176 176 178
-2.939452207230488 -1.1656742920512189 -0.5935871575224458 177 177 179
-2.9421970606210066 -1.1660628793935865 -0.6000747071891277 178 178 180
-2.939289807080582 -1.1634399310712524 -0.6058594377095339 179 179 181
-2.948176809057316 -1.167093110165574 -0.6131567913406947 179 179 181
-2.82632942501565 -1.1012337518812192 -0.6033685215158054 179 179 181
-2.828642929035695 -1.1014270530123889 -0.6096047330715695 180 180 182
-2.6207834639141696 -0.9890640820939158 -0.5929840985950876 182 182 184
-2.6208044656241993 -0.9881107748142631 -0.5985067233901648 182 182 184
-2.619035476597596 -0.9862084367281667 -0.6037798373820129 182 182 184
-2.6208464134442653 -0.9862024596469837 -0.6095615294424828 182 182 184
-2.57833903282861 -0.9627430122175479 -0.6089163475168377 183 183 185
-2.1957323466870418 -0.7570188777634332 -0.5720143010767935 184 184 186
-2.1900198592805022 -0.753189431889367 -0.5758009141568069 185 185 187
-2.179313641203281 -0.7467318179424511 -0.5787801479240611 185 185 187
-2.1704690488473517 -0.7412618571732792 -0.5820152013032309 186 186 188
-5.272687683277844 -2.820435392754905 1.402400362781609 198 198 201
-5.2120111191334555 -2.7817758964358514 1.3744846828578077 197 198 200
-5.12769263783629 -2.7287532641982954 1.3397063505093132 196 197 197
-5.1744240782575845 -2.755564357393691 1.3442138213453196 194 195 190
-5.205700423298469 -2.7729411907306742 1.343977889887982 173 166 153
-5.213912337404998 -2.7762706299485718 1.3368456833268207 98 83 64
-5.190355602335531 -2.7602836130041224 1.3203995210944923 86 71 47
-5.171771393333297 -2.747331502367607 1.3054767802401281 118 101 63
-5.156808545992659 -2.7365891636130475 1.2916608034063795 119 101 54
-5.142509563494084 -2.7262582771854085 1.2780841800508074 82 63 23
-5.091120383139839 -2.6901685893554284 1.2352461422900372 18 14 7
-5.120884782443582 -2.7065594433881226 1.234184684639264 18 13 12
-5.124414371297414 -2.707050114991305 1.2257270216816187 20 15 14
-5.358585141145512 -2.8470769610276885 1.280864852948457 20 15 14
-5.298369087196257 -2.8089421473451917 1.254487183338321 19 13 13
-5.254982443145303 -2.7810157735965766 1.2329034696523233 15 10 10
-5.113058652334561 -2.6935939546581946 1.1848308920527606 13 10 8
-5.080956939082245 -2.67256511531658 1.166761554039225 9 7 5
-5.046847081154507 -2.650343989629475 1.148268243211782 8 7 5
-5.028932974852005 -2.6379113784573205 1.1341844890590334 10 9 7
-5.001278512809777 -2.6196178955454443 1.117598311877725 7 6 5
-5.044002899853893 -2.6437423265662945 1.1194961325812696 8 7 6
-5.062316592346184 -2.653139775624189 1.1148999492821325 9 8 7
-5.075360579392599 -2.659353221975204 1.1088744097780734 9 8 7
-5.101186875468066 -2.6732462882863506 1.1060661445226323 10 9 8
-5.105562533561336 -2.6742259352407514 1.0977105167753143 9 7 8
-5.117078327026503 -2.6794922921221422 1.0911343343083055 7 5 6
-5.083948715404741 -2.6579380644930732 1.0733348102757836 8 6 6
-5.121986513660014 -2.6791218906043905 1.0733368445022085 6 5 4
-5.0904590449170675 -2.658546616885608 1.05603453107642 8 7 6
-5.071129330100277 -2.645304422708772 1.0418290857134265 9 8 7
-5.044351441108276 -2.6276100903891795 1.0258792899739375 7 6 5
-5.046262932460809 -2.6271160012981127 1.016942068476728 7 6 6
-5.0387819407282235 -2.6209970216013727 1.0057446828762058 8 6 7
-5.0351545049439315 -2.6171876436123003 0.9954850170709661 7 5 6
-5.043288041412527 -2.6204128792977217 0.9880055846580029 8 6 7
-5.048852936562806 -2.622096786915021 0.9798906033712746 8 6 7
-5.073100247230551 -2.6349365482288394 0.976084841096855 8 6 7
-5.032592818080584 -2.609098175676348 0.9572795827254204 8 6 7
-4.977204866126135 -2.5744052612668327 0.9352202691509526 6 4 5
-5.0160495530024765 -2.5959480311579153 0.9347038423136613 6 4 5
-5.003305277746939 -2.5867135234686596 0.9224492337839294 7 5 6
-4.988821522518444 -2.5764500009908655 0.9098489264347174 7 5 6
-4.971559887147954 -2.5645408362440865 0.8966830956991763 7 5 6
-4.943514752335444 -2.546224386527332 0.8812127805531285 7 5 6
-4.911559967887124 -2.525599637230342 0.8649913390677169 7 5 6
-4.8910271797889955 -2.511784727480636 0.8513437236609191 11 9 10
-4.870651399979678 -2.4980754630137043 0.8378005058414315 10 8 9
-4.774311704894669 -2.434565027803691 0.7812720563561957 11 10 8
-4.983016680555926 -2.5566628298321907 0.8149242504923855 11 10 8
-5.024082650874196 -2.579345342181483 0.8138498773977381 12 11 9
-5.004052465702555 -2.565837636669525 0.8003588128577888 16 17 14
-5.0056939618112075 -2.56516245455384 0.7912453762073994 18 18 16
-4.956706174898063 -2.534550604998042 0.7721493051191286 24 21 19
-4.881298697856649 -2.4883574018253105 0.7480756104871082 27 23 23
-4.86453006737925 -2.476844594018582 0.735608190879852 35 31 32
-4.808739080691236 -2.4423076002130903 0.7157299734303597 57 53 54
-4.8195437230826705 -2.447094514606874 0.7086755768390893 80 76 77
-4.764180824412289 -2.412858977969683 0.6891589083819218 80 79 79
-4.750479568613165 -2.40321009127927 0.6775841863573033 57 55 55
-4.741493636399217 -2.3963465062018576 0.6669229661070144 66 64 66
-4.720091496779653 -2.3821789970215717 0.6540296569579886 86 84 85
-4.695940436855026 -2.3664072713701807 0.6407158850444534 92 90 90
-4.70248775918912 -2.3687013449346423 0.6329624187420517 75 75 73
-4.640199704647021 -2.3305368781235285 0.6130313438949606 63 63 60
-4.636803042165141 -2.3270024781131364 0.6036114882881696 57 56 52
-4.522313803634206 -2.258254489012175 0.5750082839517778 52 52 48
-4.415564466890984 -2.194121342726953 0.5481508054115545 48 47 43
-4.490338812178886 -2.2364989937216717 0.5523675619293342 48 46 43
-4.4241419656457985 -2.1962102606172422 0.532737886931379 45 43 40
-1.9164619284148225 -0.7259185347869774 0.10984750773836999 47 46 42
-1.907682911305671 -0.7201244715613657 0.10465827796963262 49 48 44
-1.902881061211624 -0.716662732767879 0.10014232859535632 47 48 43
-1.89875163872822 -0.7135969826513572 0.09574971867061688 44 45 40
-1.8936722822486578 -0.7099784217772119 0.09122071184529462 36 37 32
-1.8630383306578713 -0.6914365622845051 0.0827248799791091 33 34 29
-1.8460323470281128 -0.6808699602316348 0.07644104947503905 33 33 28
-4.021278698383534 -1.9493583513038997 0.4037492902797738 37 34 31
-3.962133093319517 -1.9135226497920703 0.3871366349218911 41 36 33
-3.9739201342998682 -1.9190633307922986 0.3812672649195431 44 40 31
-4.023834712770377 -1.9468031112065456 0.3809350369961786 51 45 32
-3.9746413705172046 -1.9168160866667343 0.36607818464988784 59 51 33
-3.9698896858704273 -1.9127167028324694 0.35774571998748417 66 57 36
-3.947034458690131 -1.8980930746874816 0.3468772009806814 71 59 35
-3.919696337148551 -1.8808785690596324 0.335467798773626 76 63 37
-3.8963556982236076 -1.8660031186410138 0.3247053970170556 78 63 35
-3.901937472819525 -1.8679312556683807 0.31793694914290904 80 65 37
-3.9463055015904196 -1.8923569398830176 0.31631345749288375 78 63 36
-3.9761181411379125 -1.9083131209095714 0.31260549399919213 78 63 37
-4.003483082963018 -1.9228304958726825 0.30846363732043014 78 64 37
-3.986964783998526 -1.9119135376225653 0.2986134808048293 74 61 38
-4.012309273564062 -1.9252383123519987 0.29408515390368717 72 59 38
-4.138024490205504 -1.9966103390669694 0.3018863401001579 71 59 40
-2.403938557965789 -0.9926134205000268 0.08241737080634537 71 59 43
-2.4072372679468224 -0.9936953591193528 0.07808736869416044 70 60 46
-2.4164006110452494 -0.9981615557756501 0.07443519263299236 69 61 50
-2.422130896513477 -1.0006397472625503 0.07034656348285806 67 61 51
-2.4299986596817247 -1.004346693578578 0.06647801505022533 67 64 55
-2.431159693224427 -1.0041814305386236 0.0618227909253205 70 67 59
-2.4255016530277125 -1.0000858935240695 0.05640669726028491 72 68 62
-2.4140834800596016 -0.9926766630699246 0.050383695416037155 73 68 63
-2.3925832046274125 -0.9794720899178683 0.043325338337749764 74 69 65
-2.3825170463349252 -0.9728581319467842 0.03754504732386088 72 67 63
-2.376233920522869 -0.9684251198683453 0.03218995732725849 72 67 63
-2.9391175290310163 -1.2899891642933834 0.07858388717622689 72 67 63
-2.907732529917 -1.2709708850412922 0.06975457724171186 72 67 63
-2.865363166682471 -1.2456731366753722 0.05999512334163659 72 67 63
-2.807467508477191 -1.2105380520849838 0.04340835306267232 72 67 62
-2.8325153586205314 -1.2239126218290348 0.040112829972288266 72 67 62
-2.7981964671146193 -1.203300734894724 0.031514570226669925 70 65 60
-5.076116740592203 -2.5049853625671696 0.22129924581439742 71 66 61
-5.0221446777107985 -2.472413493725582 0.20688078273343624 69 64 58
-5.017299591479091 -2.467937622299553 0.19668776542965127 67 62 57
-5.00008748220739 -2.456404272280676 0.1855187389707318 68 63 59
-4.955317089186326 -2.4291589240133766 0.17225889084348256 66 61 57
-4.955492940209734 -2.4275703653234246 0.1625883848753975 65 60 56
-4.963505372931926 -2.430446454373166 0.15349363832237595 65 60 56
-4.965529448710266 -2.4299057831270257 0.14392978838896142 65 59 55
-4.490214507971362 -2.1561341464483776 0.09194457792562205 66 59 55
-3.055858293618355 -1.3370384493538823 -0.024425326484816656 62 57 52
-3.053702889446892 -1.3347578009712497 -0.030619822654442408 62 57 51
-3.0542803341829425 -1.3340280003480918 -0.03664855585525606 59 54 48
-3.0556117998903294 -1.3337246327771202 -0.0426399349472546 59 54 48
-3.0608537605435693 -1.335635050494585 -0.048424841309469446 58 53 47
-3.068181704830596 -1.3387223436329128 -0.054122709862854834 59 54 50
-4.324923885194396 -2.0457649545445773 -0.01309195486834569 58 52 49
-4.3648023985870825 -2.066797771011305 -0.019833877462280824 56 50 47
-4.353371591245966 -2.058840431160328 -0.02895944643768944 55 51 47
-4.344741656956647 -2.0524700479687787 -0.037929425549537044 57 53 50
-4.350329331844149 -2.0541204248607525 -0.0463094190458051 57 54 51
-4.352257100536698 -2.053704016755507 -0.05485318942503992 58 56 52
-4.361648175155194 -2.0574881606392967 -0.06314355017218976 59 59 55
-4.36878010261737 -2.0599937252072773 -0.07155115665092637 61 61 56
-4.372850722835202 -2.060771839806685 -0.08008829719764488 64 64 59
-4.371964788537905 -2.0587603054361914 -0.08879353224550424 67 67 63
-4.305539836190401 -2.019931599586105 -0.09932284517840007 69 69 66
-4.3172411899736 -2.0250085741457764 -0.1075775240326654 72 70 72
-4.316062102216414 -2.0228498611009855 -0.11619055366448705 77 75 77
-4.3205158509156725 -2.0238496645167054 -0.12467997313052315 80 78 81
-4.346373872208895 -2.036840492779189 -0.13276306982412622 81 80 83
-4.399352709394417 -2.065002071442273 -0.14046192402502755 84 84 85
-4.385175743821261 -2.0555385888553612 -0.14945441160380912 87 87 88
-4.396479230077473 -2.0603370488218453 -0.15803558915610794 88 88 90
-4.376199951309207 -2.0474711271951938 -0.1670511581210935 93 93 95
-4.37313587731035 -2.0442362086559607 -0.17581582987908417 94 94 96
-4.211563165295879 -1.9524990188340832 -0.18588723231627013 95 95 97
-4.202323980938095 -1.9458749638487578 -0.19436624006068537 97 97 99
-4.188974786867499 -1.9369643913735681 -0.20283165310225937 100 100 102
-4.1433150565102235 -1.9100546241575553 -0.2113272787099627 103 103 105
-4.090634562059859 -1.8792648319548015 -0.21965157278551817 103 103 105
-4.078545142786896 -1.8711050007117933 -0.2278350671003475 106 106 108
-3.9552027260956035 -1.8010626600156603 -0.235588890165778 109 109 111
-4.051970372680906 -1.8534757812298948 -0.24406012967618596 110 110 112
-3.946751987509059 -1.793595488324205 -0.2514201973939423 113 113 115
-3.8728298291566037 -1.751164485153061 -0.25866421399695916 113 113 115
-3.863878840194903 -1.7448377761394127 -0.26635852027179563 115 115 117
-3.8526419285971003 -1.7372487257678102 -0.27399145868124686 115 115 117
-3.4347471637813434 -1.5030689756437914 -0.2823157758264263 120 118 121
-3.4410402592294655 -1.5053406569583079 -0.2893858053740903 120 120 120
-3.435404234473995 -1.5010080381087347 -0.29623165264661666 122 123 121
-3.434608010680912 -1.499354384155513 -0.3031712434974151 121 124 121
-3.352837367449402 -1.452960598564166 -0.3080752634055618 122 127 123
-3.349491790666681 -1.4499269215358463 -0.3147870588864927 123 128 124
-3.5038304653644263 -1.533909898609393 -0.32607824160518073 124 129 126
-3.5026876827813718 -1.5320399171631816 -0.33315159110536563 125 128 127
-3.5005382923987005 -1.5296152559214997 -0.3401910753087216 127 130 129
-3.4983899684513093 -1.5271919799717808 -0.34722602161583305 127 130 129
-3.4962435636002898 -1.52477055821814 -0.35425646413204237 130 132 133
-3.493864562470891 -1.5222219816655453 -0.36127326280330085 132 132 133
-3.497988674014735 -1.5232494968271575 -0.3685511326905012 131 133 132
-3.4096153094592183 -1.4734543435400425 -0.3718741111367724 133 138 135
-3.402660339599649 -1.4684236829368775 -0.378510741488644 133 136 133
-3.413707720939278 -1.4732753827934948 -0.38596880294897734 136 137 135
-3.418619274409265 -1.4747540373396668 -0.3931743750865379 138 139 137
-3.4097806400606157 -1.468693175277625 -0.39970307672635863 140 142 139
-2.856562174566546 -1.16347040008917 -0.3832587736994976 142 144 144
-2.840871417478536 -1.1538641028096253 -0.38823610451705914 143 145 146
-2.83441316586432 -1.14931495195076 -0.393697907237209 146 147 148
-3.4828428699655234 -1.5025258664579553 -0.4390165711356598 146 147 148
-3.483944301635944 -1.501883674552436 -0.44621622243972564 149 149 152
-3.486944509565088 -1.502275975530424 -0.4535474522159266 147 148 150
-3.4869719011348588 -1.501044591045102 -0.4606958027983601 151 151 153
-3.487852202452555 -1.5002772372850124 -0.4679069972633565 153 153 156
-3.4885578396760963 -1.49941346243311 -0.475113315684374 154 153 157
-3.2227037799324414 -1.353488299615312 -0.4628967551909707 154 154 158
-3.210584010288304 -1.345740238830714 -0.4686221977951836 158 157 161
-3.201735749392445 -1.3397780550108422 -0.4745543277372945 158 157 161
-3.19585202876961 -1.3354315937166066 -0.48068856867745124 159 158 161
-3.192409602746971 -1.3324137320639615 -0.48700040345706036 159 159 161
-3.1186338412259236 -1.2912456467478874 -0.48747022169948273 162 162 164
-3.119391458258022 -1.2905327868647687 -0.49397716872281217 163 163 165
-3.115272853677033 -1.2871771021858212 -0.5000668372964706 164 164 166
-3.113664684117072 -1.2851828125473257 -0.5063668374204302 164 164 166
-3.1063097645581443 -1.2800797854629624 -0.5121412438285978 164 164 166
-3.099793211148722 -1.275434592944476 -0.5179675806664426 166 167 169
-2.4937232794675794 -0.9459226806635883 -0.4720262034771527 167 168 170
-2.498206272335755 -0.9474336845038989 -0.47767773642251066 168 169 171
-2.6205879006937534 -1.0125220453513417 -0.49526238457239746 170 170 172
-2.6178761025918855 -1.0101066968742156 -0.5004525022522762 171 171 173
-2.6154414939495347 -1.0078420142092894 -0.5056638510728889 171 171 173
-2.6101625275133564 -1.0040475993428186 -0.5105637969735238 172 172 174
-2.6166779003125566 -1.0066002656115813 -0.5167324411653264 172 172 174
-2.6063720276699773 -1.0001059931244347 -0.5210609513831989 173 173 175
-2.604993121850366 -0.9984137619367291 -0.526361038656503 174 174 176
-2.489651672971482 -0.9355449724186133 -0.5185309266477305 175 175 177
-2.797826702929073 -1.0979159736830875 -0.5715912185524592 177 177 179
-2.792550740299777 -1.0940692324900887 -0.5768008009660228 178 178 180
-2.802226911929461 -1.0982257565531568 -0.58386631248828 178 178 180
-2.7985882920037835 -1.0952555228686944 -0.589278527485529 180 180 182
-2.8109716995057794 -1.1008484774467853 -0.5967525643062075 179 179 181
-2.8229715781893203 -1.106227270138268 -0.604229883635686 179 179 181
-2.79936155241586 -1.0925945080611243 -0.6070063411077511 180 180 182
-2.6352454977738913 -1.0040498524378556 -0.5906496486592054 182 182 184
-2.631102701744843 -1.0008738668735484 -0.5956316530253695 181 181 183
-2.631998297395942 -1.0003835396562342 -0.6013031902736207 183 183 185
-2.6317565152044415 -0.9992867114814519 -0.6068204149884077 182 182 184
-2.6316575312283983 -0.9982654580161716 -0.6123602919615562 182 182 184
-2.582056225358543 -0.9709335512059694 -0.6106896666230666 183 183 185
-2.5780385375941295 -0.9678476235992394 -0.6155547846274935 184 184 186
-2.09250492729912 -0.7084063048027001 -0.5527367280507569 184 184 186
-2.1941348636268745 -0.7614981658775565 -0.5728430126499222 185 185 187
-2.1866974507803314 -0.7567429563635947 -0.576359568767813 185 185 187
-2.1810157620803974 -0.7529220005105863 -0.5801256690593497 186 186 188
-2.1693797609305077 -0.7459548523141701 -0.5829181255818622 186 186 187
-2.16760400185908 -0.7442080587552105 -0.5872637864447148 187 187 187
-5.160544005860849 -2.763936106547039 1.368330088838315 198 198 201
-5.134732251936761 -2.7465021770473097 1.3511057369738582 197 198 200
-5.141916067723988 -2.749255927237943 1.3438442005744695 198 199 201
-5.179320122815444 -2.770470436970739 1.3455415121042391 194 194 191
-5.210694629461157 -2.7879781176428775 1.3453161455870477 172 167 155
-5.21294791260659 -2.7876889237734392 1.3364147909334343 94 80 61
-5.20641202649707 -2.782035076532561 1.3249332743754514 84 69 49
-5.185602319600883 -2.767680352177436 1.3093272831685074 104 89 57
-5.16568190640823 -2.753879847577678 1.2940479671353409 106 90 49
-5.135320507888883 -2.73373071590819 1.2758428788171552 81 63 25
-5.152316048799532 -2.7391291571182412 1.252249641250445 19 15 8
-5.157768520863242 -2.7407904365585134 1.2442746994366476 18 12 12
-5.164285752829614 -2.7430943336679428 1.236570501453336 19 13 13
-5.298835921105223 -2.8231442304626833 1.264144735289493 18 12 12
-5.2431499462207025 -2.7876429822411515 1.239110099558675 19 13 13
-5.1259670276864 -2.714869452957778 1.197537099614458 15 9 9
-5.086543234885591 -2.6893164594751773 1.1774044813683564 13 10 9
-5.052861315781828 -2.667267166887597 1.158951872874895 10 9 7
-5.020245445491321 -2.645884030933858 1.140901099544732 10 9 7
-4.987535845960282 -2.6244639539975587 1.1229392552783442 7 6 4
-4.95157649460874 -2.601097463901154 1.1042367852773851 8 7 5
-5.03718731314633 -2.651271390471936 1.1174166522018754 9 8 6
-5.057272522960982 -2.661784907673238 1.1132825409717826 9 8 6
-5.065897659331637 -2.6653617049913687 1.1061184160817672 9 8 6
-5.090950369945521 -2.678850934709683 1.103119093448386 10 9 7
-5.088272944980159 -2.6755890432625904 1.092982054311384 10 8 8
-5.088520816215011 -2.674092378544413 1.083587208023257 7 5 6
-5.086245766636824 -2.6710737754109544 1.0735550201757242 7 6 4
-5.107723950714236 -2.6823674531272905 1.0694272737848123 9 8 6
-5.064003308427762 -2.6543839829369924 1.0491374385737549 9 8 6
-5.044413065276694 -2.6409510783090338 1.0349091509252115 11 10 8
-5.022217373404754 -2.625962455769425 1.0201146232134002 10 9 7
-4.999952982164079 -2.610945816491867 1.0053798725297114 8 7 6
-5.024451418602055 -2.6240433372493617 1.0019110726276337 8 6 7
-5.012341154395197 -2.6151370574451613 0.9896549246187998 8 6 7
-5.018182106496946 -2.617013459600103 0.9816676676518743 7 5 6
-5.0274723630784655 -2.620954714184478 0.9744603032589689 7 5 6
-5.0423530194171535 -2.628241402028933 0.9685103860806432 8 6 7
-4.994975360278928 -2.5982048075494846 0.9481754281163557 6 4 5
-4.941676041064028 -2.564650580897953 0.9266580877171056 7 5 6
-4.888705312073306 -2.531326356453857 0.9054063448705363 7 5 6
-4.948720086853391 -2.5656415281761435 0.9097182382659872 7 5 6
-4.936133186003118 -2.5564985090874885 0.8976334689087453 9 7 8
-4.927433530859441 -2.5496861921204603 0.8864487848483007 7 5 6
-4.916529456657781 -2.5415616787921116 0.8748083758562972 8 6 7
-4.894832916396073 -2.5269993570704803 0.8608591693332708 9 7 8
-4.860134804681304 -2.504691338049388 0.8441852443648539 10 8 9
-4.845550031823626 -2.49440109166273 0.8319288598358441 8 6 7
-3.993313606963207 -1.9834694548709764 0.6348793290853026 10 8 9
-3.998591073467331 -1.985297293731273 0.6284235827309638 9 8 7
-4.592478834289931 -2.3359217911566814 0.734587731958076 13 12 10
-4.595313454809817 -2.3360968373332014 0.726485594214211 14 13 11
-4.560107957048107 -2.3136665680156665 0.7107395930354035 14 14 12
-4.842849521298724 -2.4784798375413994 0.7491372475897813 25 23 20
-4.789131802959884 -2.4450195869203197 0.7295041435910461 29 25 25
-4.771750851499484 -2.4331368328512797 0.7170829850487459 35 31 32
-4.766353154071597 -2.428365320206009 0.707013468895141 51 47 48
-4.729501523444325 -2.4049681920209287 0.6910019225513506 77 73 74
-4.71168656043583 -2.3928621996510726 0.67869274984992 72 70 71
-4.692129161326992 -2.37973610776188 0.6661215889154306 58 56 57
-4.699080802050562 -2.382295789773415 0.6584911108860687 60 58 59
-4.679867795651601 -2.369388320694956 0.6460693979977452 77 75 76
-4.65855329782429 -2.3552513137149593 0.6333361256658763 87 85 85
-4.639838579344102 -2.3426619538825966 0.6211409424076442 73 73 71
-4.63126861289639 -2.3360690092646634 0.6107998680513602 62 62 59
-4.572157934540269 -2.299679843695387 0.5916678534107256 55 54 50
-4.514478748792293 -2.2641719229715687 0.5729991772436809 51 50 46
-4.411899245665767 -2.2022548205812926 0.5468754010643502 49 48 44
-4.434499286711172 -2.214092695338249 0.5422695105406556 45 44 40
-4.424699687673069 -2.2068530376853936 0.532163909041012 44 43 39
-1.8906578950979092 -0.7146831813441522 0.10157669360350202 49 48 44
-1.8925473436740499 -0.7151468466114651 0.09816957689114342 50 51 46
-1.882220879147909 -0.7084377631535765 0.0928050009713074 46 47 42
-1.8734919545671314 -0.7026723691502864 0.08772899230036652 40 41 36
-1.8524144898574895 -0.6896713862822702 0.08076064205095301 36 37 32
-1.8355658670901904 -0.6791621770230601 0.07452017478578027 38 38 32
-3.9879198023815094 -1.9392231388116725 0.39801234642659944 40 37 31
-3.9658209871740033 -1.924951433634975 0.38702527923388497 46 40 36
-3.9797311828351845 -1.931761329952388 0.3814543102370965 52 46 35
-3.9714075215910354 -1.9255602838296444 0.37257332286939493 56 50 34
-3.9724719788170857 -1.9248505387753618 0.365075639556106 63 54 33
-3.9638965833768562 -1.9185088595955908 0.3561955428723592 71 60 36
-3.944089406764868 -1.905615439671731 0.3457636439434836 75 63 36
-3.8953316605098776 -1.8758436764114066 0.3313844501436304 78 64 37
-3.8868059000153776 -1.8695625863441074 0.32269296156355154 80 65 37
-3.916919445919638 -1.8858043252813417 0.3192462233379667 82 66 40
-3.944889048108882 -1.900776808973409 0.31539614877824906 79 62 36
-3.964107030429456 -1.9106357162739909 0.3102877154463406 79 64 38
-3.9921435007995454 -1.9256117027826987 0.3062429137112699 76 62 35
-3.9850529176244143 -1.9201436759926966 0.29761121749853614 70 58 34
-4.007433883866445 -1.9318062605692907 0.29270217416102673 74 62 41
-2.4156766130994973 -1.0051425470804394 0.08336871862126238 71 59 43
-2.412955915874108 -1.002736874216693 0.07828973933895822 71 61 47
-2.4167251800471408 -1.0040954581245463 0.07398403199885817 70 63 51
-2.425104579492954 -1.0081225514542158 0.07019644886503074 70 65 56
-2.428844255010678 -1.0094565873374786 0.0658447816847757 70 67 58
-2.4285507309811236 -1.0084532324674966 0.061023560166367674 71 68 60
-2.4148600390697728 -0.9996996208468513 0.05472249845373722 72 67 61
-2.399400687852682 -0.9899320825594347 0.04827916845821778 72 67 62
-2.3841226552289125 -0.980279115125509 0.04191146806865942 73 68 64
-2.387030130209153 -0.9811377043182394 0.03750223798190633 72 67 63
-2.9344032790481203 -1.2942254480413093 0.07746957722801417 72 67 63
-2.9254765135869385 -1.2880770344147587 0.0708287727144884 71 66 62
-2.92549470269055 -1.2870847312101816 0.06506949260945394 72 67 62
-2.8842690627576197 -1.2623564186993244 0.05546414430363156 72 67 61
-2.8622046268439663 -1.248675738495904 0.04776208619940947 71 66 60
-2.8382034561512675 -1.2338959411675645 0.03996837136939113 71 66 60
-5.078268853837776 -2.51809434007939 0.2203098370073251 69 64 58
-5.031811994871236 -2.4897116542820896 0.20651809677715005 71 66 60
-5.000197902195769 -2.4698712339415145 0.1941115458953795 68 63 57
-4.986624800263997 -2.4603913052679336 0.18325992908164168 68 63 58
-4.910892108363644 -2.4153131803670345 0.16761677745954273 65 60 56
-4.914887695702035 -2.415928190917115 0.15831201101893133 65 60 56
-4.926125978740719 -2.4206835374944635 0.14952253722248265 66 61 57
-4.9314157708478366 -2.4220289919526583 0.14025586261163792 66 60 56
-4.921407908219244 -2.4146276455735154 0.1298905124071985 67 59 56
-3.030554562614788 -1.330899727502414 -0.020773865044609874 63 58 52
-3.0265225341894277 -1.3275534963694566 -0.027043026797636482 63 58 52
-3.025474378255119 -1.325909624370086 -0.033119382327090996 63 58 52
-3.0426962359604346 -1.3346700725255491 -0.03812486952323835 61 56 50
-3.031874953060818 -1.3274581229225964 -0.04478856165047618 59 54 48
-3.0369799157732698 -1.3293116508721772 -0.050542458807241175 58 53 47
-3.047018561685647 -1.3339657593173508 -0.056059052887011296 58 53 49
-4.357282838030796 -2.075800027343372 -0.004129026632742061 58 53 49
-4.341864213476359 -2.0655512958671998 -0.013467695426049309 59 54 50
-4.357796582185603 -2.073091600543095 -0.021339777973253593 58 53 50
-4.357909598656193 -2.0716543592161445 -0.029959937953375038 56 51 48
-4.348086240065669 -2.064587914626174 -0.03899407997946569 57 53 50
-4.362011936457035 -2.0709715364786603 -0.04706382435219325 58 57 53
-4.368184356295228 -2.072958437158639 -0.05548128472254543 59 58 54
-4.317781405284375 -2.042951508129452 -0.06592538788280256 62 61 57
-4.317649723742151 -2.041385222968989 -0.0745006840745881 64 63 59
-4.319715505321239 -2.0410592075437672 -0.08301112803607069 67 66 62
-4.3159596159133775 -2.037445200500998 -0.09170592688388601 70 69 67
-4.32417319361565 -2.0405844677023848 -0.10006132673617463 72 71 71
-4.3344131898717695 -2.0448596820000957 -0.1084016383932781 76 74 76
-4.31464195968114 -2.032219231965826 -0.11749570890568073 79 77 80
-4.316844613702105 -2.0319636894831326 -0.12604106036217388 83 81 84
-4.403522204659959 -2.079240368478426 -0.1329336402105058 85 83 86
-4.41058962639325 -2.081687235049369 -0.1415842598677819 87 87 89
-4.404288363852309 -2.0766149087610923 -0.15047876406901428 89 89 91
-4.4088508463895195 -2.077648033309619 -0.15920290684337468 90 90 92
-4.383037693745246 -2.061626011445199 -0.16831127602806284 92 92 94
-4.3802236724406 -2.058523337183292 -0.17709471214229822 97 97 99
-4.222138897658119 -1.9683672261672902 -0.1871117596217321 99 99 101
-4.202246483693264 -1.9557502968259826 -0.19568133246496566 100 100 102
-4.1846007003427115 -1.9444042061456965 -0.2041684106789825 102 102 104
-4.138864816612301 -1.9173490586950013 -0.2126499008082472 105 105 107
-4.115430227880006 -1.9027974090483672 -0.22095335265940685 105 105 107
-3.9661863638734793 -1.817939284279198 -0.2289394928862286 107 107 109
-3.9658315365618253 -1.816353796413553 -0.23690813036422143 110 110 112
-3.9588300942295853 -1.8110571766944465 -0.24484149765720087 111 111 113
-3.9624010882413083 -1.8116632431623243 -0.2528334072084715 114 114 116
-3.961070904515826 -1.8095332717046484 -0.26079626094960784 114 114 116
-3.8684608155015456 -1.7565384208355104 -0.2676934644751603 117 117 119
-3.856180130932666 -1.7483417295043118 -0.2753254171586519 118 118 120
-3.4537991263520653 -1.5230400639085728 -0.27682435628788293 121 120 123
-3.454378399790691 -1.5221455914290665 -0.28382438747014227 121 120 123
-3.444941228925587 -1.5156822180414706 -0.29063469351554616 122 123 122
-3.448380368794588 -1.51637777285531 -0.29768883306643734 123 125 121
-3.444067576777043 -1.5127665633334058 -0.30457820203076313 123 128 123
-3.380900190724595 -1.4765029566125847 -0.3099544545298114 122 127 123
-3.376538697508821 -1.4728896046465856 -0.3166996523922657 125 130 126
-3.5196892376512583 -1.5510220573727769 -0.32777469854150765 124 129 126
-3.515403000857749 -1.5474042108502772 -0.33478752080615426 126 129 128
-3.510618926387738 -1.543513099474618 -0.3417706858020567 127 131 130
-3.5068747786565546 -1.5401997978342736 -0.34877564189255705 129 132 131
-3.5095359263441273 -1.5404290317072487 -0.35600909076343257 132 133 134
-3.5054539716540347 -1.5369306999148187 -0.36299166356421364 133 132 134
-3.5016961029992615 -1.533613420620331 -0.36997538543697484 133 135 133
-3.4201973577196516 -1.4874060630818966 -0.37357940294269276 131 137 133
-3.4240719129770496 -1.4883279106924172 -0.3807324906986888 135 139 137
-3.429040083706092 -1.489849023086609 -0.38795661387327385 138 140 138
-3.4319058891606975 -1.490208262101737 -0.39510075230213115 139 141 140
-3.4398733981052136 -1.4933725306204046 -0.40252188606191197 140 142 139
-3.4464461225402085 -1.4957634642733784 -0.4099043545027804 141 143 141
-2.851916509807678 -1.167752958559284 -0.38408754897261327 144 146 146
-2.7210929154647907 -1.0948699195525553 -0.3824614650610585 146 147 149
-2.8338906765159524 -1.155814566486254 -0.39475631103737474 147 147 149
-3.493210882898499 -1.5165068440199516 -0.44099015948974707 149 149 151
-3.4934679218789295 -1.5154017544364684 -0.44816484113575394 149 149 151
-3.4996672610199 -1.517551650008424 -0.45573237987852033 150 150 152
-3.496897111690433 -1.5147851652687274 -0.4627253513512806 153 153 155
-3.5010670588466506 -1.5158176421796816 -0.470191977596534 154 154 157
-3.5009500222911676 -1.5145021059957988 -0.4773737619890878 155 154 159
-3.2333527372324773 -1.3670032076212124 -0.4649587653442328 156 156 158
-3.216725393669318 -1.356762382712323 -0.4703683314282477 155 155 158
-3.1991752385435372 -1.346028835685666 -0.47564357063057633 158 157 160
-3.1986682129463055 -1.3446034288592172 -0.48220351230541436 160 160 162
-3.1947238850892044 -1.3413039909004913 -0.488485631281225 161 161 163
-3.1500893787056823 -1.3158398503730848 -0.4913654819613247 162 162 164
-3.12651685632286 -1.3018728949092497 -0.49586664473329106 164 164 166
-3.125249432027252 -1.300057363790776 -0.5022246705140707 164 164 166
-3.1197450280974865 -1.2959383603070607 -0.508202631238112 164 164 166
-3.1161079870250865 -1.2928372550110996 -0.5143326468765521 165 165 167
-3.1116220477124172 -1.2892771046795197 -0.5203723463794506 165 166 168
-2.5085559730052363 -0.9599772288043517 -0.4745349343009929 167 168 170
-2.5111908175030897 -0.9604926173902225 -0.48003989474433195 168 169 171
-2.512407137273473 -0.9602373499936045 -0.4854145209403537 171 171 173
-2.7729983870029673 -1.099363252157634 -0.5234220827383502 172 172 174
-2.7759254856895463 -1.0999377369774521 -0.5295265603959586 173 173 175
-2.7680780074367086 -1.0946891101815408 -0.5344658468420309 174 174 176
-2.7686066780472833 -1.093967338116663 -0.5403111148586532 174 174 176
-2.774788918284357 -1.0962947290408163 -0.54680399315683 175 175 177
-2.7839465001511514 -1.1002213369811689 -0.5536692123627664 175 175 177
-2.7943807381002506 -1.1027907264068881 -0.572433692521346 176 176 178
-2.790865788044378 -1.099880743766022 -0.5778579827795989 178 178 180
-2.7928197530286396 -1.0999115579453924 -0.583959147939288 178 178 180
-2.7845856379143736 -1.094469160664387 -0.588769371701669 179 179 181
-2.7825363966311607 -1.0923512662237982 -0.5943524717837197 179 179 181
-2.778202229459728 -1.0890088097156072 -0.5996291601014303 179 179 181
-2.707934141383824 -1.050330816157841 -0.596061263692385 181 181 183
-2.7010504461047447 -1.0456512264035636 -0.6008280868468798 181 181 183
-2.644067730767425 -1.01416039962356 -0.5986561299106355 182 182 184
-2.6472884450430003 -1.0149120862739607 -0.6046859757609381 181 181 183
-2.6450083391365906 -1.0127205250652511 -0.6099505151326876 182 182 184
-2.5850295106567764 -0.9797082637122855 -0.6068926128066049 183 183 185
-2.584841142303345 -0.9786560198585232 -0.6123325751077834 183 183 185
-2.5836855056495938 -0.9770873627727141 -0.6176314754230869 184 184 186
-2.1040532539265224 -0.7196535333046923 -0.5555190948298028 185 185 187
-2.104570413252608 -0.7191466253975936 -0.5600929698398639 185 185 187
-2.185956848187598 -0.7616650800221321 -0.5773210472113051 186 186 188
-2.178005995907746 -0.7566253202989237 -0.5807282343195255 187 187 188
-2.169336904653507 -0.7512091616614733 -0.5839901139244235 186 186 186
-2.1668859761134116 -0.7491004272694595 -0.5882299463022889 187 187 187
-5.153513086701684 -2.7715173446210826 1.366098408263721 198 198 200
-5.17672253647362 -2.7841251227610613 1.3636366842945309 196 197 199
-5.145612066203091 -2.763384973933927 1.3448308086119125 197 199 201
-5.181848962844376 -2.783968934693742 1.3461646012895385 193 195 191
-5.219839390575598 -2.8056042205804532 1.3478809693590026 172 168 156
-5.230639348031464 -2.810555392463817 1.3414654699884438 94 81 63
-5.217989926420993 -2.8011390061758084 1.3281579261259793 80 67 49
-5.2169539481528036 -2.7988378559937974 1.3182615099939978 95 81 53
-5.21806132076464 -2.7978476681074427 1.3089819251882029 107 92 55
-5.217369952120353 -2.7957560852508747 1.29917771759603 80 64 26
-5.2463295716867195 -2.808424445462922 1.278475176768715 19 15 9
-5.248001222689863 -2.8077631374079686 1.269264412550961 19 13 13
-5.243456997681457 -2.803309064859872 1.2583173050544132 19 13 13
-5.304062238922265 -2.838568501690997 1.2653446481235229 21 15 15
-5.1454340591763925 -2.740225335594242 1.2120976397513248 18 12 12
-5.115558916845656 -2.7203809358101325 1.194454113331657 17 11 11
-5.068818405553515 -2.6902903145719725 1.1723560440260374 11 7 6
-5.047029575260417 -2.675406018340433 1.1571212832432538 12 11 9
-5.026549821305571 -2.6613305123883535 1.1423099117244033 11 10 8
-4.972935961315638 -2.6271332113305697 1.1187941001052708 11 10 8
-4.907057576420115 -2.5855203655457633 1.092243421305781 9 8 6
-5.008562834234911 -2.645552817245611 1.1096418268028283 10 9 7
-5.018941896067351 -2.6502339781454727 1.1030328230540214 9 7 8
-5.024964349172517 -2.6522659301459224 1.0952591059972978 9 8 8
-5.034986729982124 -2.6567174077471645 1.0884811298577353 11 9 9
-5.049008058293062 -2.663584003461981 1.0826766936691814 9 7 8
-5.068302846267679 -2.6736335263695783 1.0781450371561516 8 6 7
-5.072376574765797 -2.6744594890182154 1.069729520253858 9 8 6
-5.092212536856318 -2.6848148690465865 1.0652088568936662 10 9 7
-5.056111448702431 -2.6613442343614193 1.0468200985656615 11 10 8
-5.029647159467292 -2.643717836538142 1.0309167272744109 12 11 9
-4.991302332024888 -2.6189335084786736 1.0122199596565085 11 10 8
-4.9834843585631 -2.612596282702877 1.001016870818694 9 8 7
-5.014726805517143 -2.629824423761728 0.9991806993442018 8 6 7
-5.004626703898383 -2.622107130715444 0.9874116541065097 8 6 7
-5.0090516421016025 -2.623147649444562 0.9790957242158305 8 6 7
-4.990605851574109 -2.6104107506770804 0.9654139451513037 8 6 7
-4.980798110072419 -2.6028842092312567 0.9537977193932063 8 6 7
-4.938890633394811 -2.5760517702408783 0.9348294390217806 9 7 8
-4.906577037192434 -2.5550139152800324 0.9181994898057304 8 6 7
-4.95879789396291 -2.5847979786356876 0.9208157627375411 8 6 7
-4.954425863968202 -2.58055562240936 0.9105306270021307 7 5 6
-4.915890266130877 -2.555806042239059 0.8926506061184238 9 7 8
-4.916366577719812 -2.55448752700372 0.883521280194661 9 7 8
-4.904972912886119 -2.546049644874426 0.8717863866378586 8 6 7
-4.883533859510407 -2.531597408264226 0.8579078118217758 10 8 9
-4.866873668380587 -2.520020806637417 0.8451321867973087 10 8 9
-4.827138913290634 -2.494638897462608 0.8274891474446715 12 10 11
-4.808160684071203 -2.4817023123209685 0.8143792616690855 12 10 11
-4.594448134817816 -2.347788244894755 0.7344638550235105 11 10 8
-4.550122619100545 -2.3198260353190068 0.7168097267845703 14 13 11
-4.4959702538407225 -2.2860302370489998 0.6973459114867755 17 16 14
-4.519639238151174 -2.298661130473749 0.6935316269953482 19 18 16
-4.732900336437496 -2.424238509956252 0.7269199037723091 22 23 18
-4.731426987525312 -2.4218038461941465 0.7176689342537845 28 26 25
-4.721929235477101 -2.4145933916236473 0.7068699740684776 36 32 33
-4.714827687745794 -2.4088136221602547 0.696559537397649 49 45 46
-4.67056155264697 -2.3809423014699505 0.679236602886164 63 60 61
-4.651161981215804 -2.3678745682887095 0.666733962171923 67 65 66
-4.628565457175548 -2.352919970589458 0.6537057069266816 57 54 55
-4.669022249345517 -2.3754047590396903 0.6523384492195179 59 56 57
-4.6447084498774895 -2.3594386262264857 0.639039443207541 70 69 68
-4.62248985603872 -2.34472969600928 0.6262034707700477 79 78 76
-4.604267949034994 -2.3324027224146784 0.6141574666489169 69 69 65
-4.544892792056658 -2.295713481511015 0.5949233641337768 59 60 54
-4.569537838073143 -2.3087962105665265 0.5905544026492875 52 51 47
-4.473094652086129 -2.250225523623766 0.5652050234602071 50 49 45
-4.336040618614058 -2.1677043262990243 0.5332841352109161 44 43 39
-4.3405432469649 -2.168925259487432 0.5257555228025503 45 44 40
-4.413668586246949 -2.210673127321252 0.5296549620030524 43 42 38
-3.2456059839326117 -1.5196938772177582 0.32851635688405556 46 45 41
-1.8759306008056267 -0.7105281212348447 0.09887444972630216 48 47 43
-1.8823011737159518 -0.7136438372738658 0.09621353611030214 50 50 45
-1.8655634824212732 -0.703136748991102 0.08984465902947297 49 48 43
-1.8555130799657853 -0.6965790523001452 0.08458966794837897 45 44 39
-1.8316622004492658 -0.6819036109576191 0.07722342187442449 39 39 33
-1.816108429667429 -0.6721249878721378 0.07122018885583237 40 38 31
-3.98799840551879 -1.9486146497042425 0.39736132003010105 45 41 32
-3.9758250247594957 -1.9401266121111969 0.3878584453788222 51 44 35
-3.9832265241675753 -1.9431434114588777 0.3812953119125979 56 49 35
-3.968762107037112 -1.9333185427620747 0.3715041505976203 61 52 34
-3.9473979049902024 -1.919454265855903 0.3607679322486702 68 56 34
-3.9370619919841134 -1.9120700615920248 0.3516785181646014 75 62 35
-3.9092644338835347 -1.8944584701371092 0.34017065384225476 77 63 34
-3.8845639086620944 -1.8786784219825439 0.32919299806721347 80 64 37
-3.8854423881997655 -1.8778877469560922 0.3218018052500843 80 63 37
-3.9130642531712105 -1.8927424825805694 0.318008989933921 80 65 37
-3.9314142383384487 -1.902156716094405 0.3128749807351451 79 64 37
-3.937235358259585 -1.9042361674593744 0.3060255569638636 76 62 35
-3.975881221495225 -1.9254833767275734 0.3033891909148071 73 61 35
-3.967343030574823 -1.9191606443847526 0.29459789434820494 71 59 36
-2.9569367498027503 -1.3283308071073816 0.16024507924412335 74 62 43
-2.9927517375447 -1.348210182564771 0.1588872004578712 71 58 41
-2.419183481729516 -1.012111955721079 0.07854987128531632 70 62 48
-2.42216685340823 -1.0130204510817487 0.07413439710269731 72 66 56
-2.4236017369231884 -1.013025658006998 0.06952558156918376 72 68 60
-2.423241498940854 -1.0119857074130334 0.06470414810215774 73 70 61
-2.4290611026500897 -1.0145367147806006 0.060573938300457986 74 70 62
-2.412906128936244 -1.0043210315344462 0.05399856259526736 74 69 63
-2.3940949260701276 -0.9925737892029919 0.0471946506814912 74 69 64
-2.3862818219056576 -0.9872187466382554 0.0416293414086738 72 67 63
-2.4160333312357505 -1.003647862538017 0.040013922723235784 71 66 62
-2.406494244465077 -0.9972897014827147 0.03425445855514164 73 68 64
-2.952671157121002 -1.3117551189128829 0.07862424791328526 69 64 60
-2.926577858440376 -1.29565091134566 0.07028335667392582 71 66 62
-2.909337322115339 -1.2846815076281926 0.06287898765086619 70 65 61
-2.886590540936103 -1.2705415547489003 0.05502565130864556 70 65 59
-2.8706052708503216 -1.260320700080999 0.04787187931486114 71 66 60
-2.8323994615481487 -1.2372858681664618 0.03879591762447154 72 67 61
-5.0171064203078055 -2.493034905902134 0.20411684118388362 70 65 59
-4.985597005438014 -2.4731884160683784 0.1917446693876368 68 63 57
-4.962785919660888 -2.458367573979365 0.18017997109304962 67 62 56
-4.8997802650773945 -2.4204441051089716 0.16557847287051564 67 62 56
-4.894526540299367 -2.4157571604259176 0.15558465374109787 67 62 56
-4.91154021701705 -2.423864490519233 0.1472481158914858 64 59 55
-4.900255354141865 -2.415712688071821 0.13680817655007416 66 60 57
-4.908391734959016 -2.418711203073066 0.12776402343042226 66 58 55
-3.0034263786150803 -1.3215189010805946 -0.02925953883297827 63 58 52
-3.0062481762331377 -1.3220953741147539 -0.035063811425389724 63 58 52
-3.012724918874813 -1.3247591915972519 -0.04066912012219803 61 56 50
-3.0141320255330366 -1.3245210955489488 -0.04658860722597491 60 55 49
-3.010794932881727 -1.3215720535008606 -0.05277514244032444 59 54 48
-3.0183863451064172 -1.3248623144970986 -0.05837817263594025 59 54 50
-4.420290510497916 -2.123505284780806 0.006502424981528865 58 53 49
-4.3943383260727495 -2.107191613359305 -0.003500359716590795 58 53 49
-4.359439806260121 -2.0857973639847978 -0.013825029110671405 58 53 49
-4.369948141881752 -2.090281367009489 -0.021986813517487658 57 53 50
-4.374989222311806 -2.091646139292897 -0.03042822088513386 57 54 50
-4.361592416821131 -2.082520233051574 -0.03964754709516782 57 56 52
-4.375673823319005 -2.089021354492578 -0.0477499057977302 58 57 53
-4.389701222198445 -2.0954814539670132 -0.05591379063775492 60 59 55
-4.314774544295371 -2.051429251767355 -0.06725366645245145 63 62 58
-4.311467266270982 -2.0480632345041876 -0.07593672946800845 67 66 63
-4.320206376297817 -2.0515295927301174 -0.08423648449267485 69 68 67
-4.3315164965771675 -2.0564462446471063 -0.09249997177137481 72 70 71
-4.338527771448101 -2.0589196441486672 -0.10092941225740604 76 74 77
-4.349736392647472 -2.063763322299458 -0.10928480910542182 79 77 80
-4.379994679486913 -2.0793749404426727 -0.11724415121203469 82 80 83
-4.399295910387837 -2.08877051804951 -0.12556079579380863 84 82 85
-4.4062716839996785 -2.091188025641488 -0.1341971835326209 88 87 89
-4.419643907590391 -2.0972119003365917 -0.14275391711121654 89 89 91
-4.423468703064939 -2.0963031601247604 -0.16034974851389694 92 92 94
-4.6428655702466655 -2.218432772974394 -0.16664320134756894 96 96 98
-4.621180704780798 -2.2046061898795752 -0.1761257891907868 99 99 101
-4.219397705954312 -1.9768064611038731 -0.18844753667526692 99 99 101
