ply
format ascii 1.0
element vertex 702
property float x
property float y
property float z
property uchar diffuse_red
property uchar diffuse_green
property uchar diffuse_blue
end_header
-5.031577844395921 -2.3114693478087873 -0.11372977323893119 89 89 88
-4.436141038282583 -2.0559022846769377 -0.16694383924626732 94 94 96
-4.592368208490483 -2.122522646253126 -0.1668591299228075 98 98 100
-4.5635244686765475 -2.1098993443129173 -0.17721991144493765 101 101 103
-4.535015094063931 -2.0974223807105936 -0.18746041907788114 102 102 104
-4.345503212004782 -2.0157838713331837 -0.2139373830892224 109 109 111
-4.331195289533481 -2.0094003047485978 -0.22297267212595706 111 111 113
-4.903537435873532 -2.2539779494398453 -0.20627457496125756 113 113 115
-4.9065035238220425 -2.254951245106723 -0.21559925782023526 114 114 116
-4.912214460296841 -2.2570978756449906 -0.22483154032308028 117 117 119
-4.895750263874077 -2.2497614021425343 -0.23493649619792112 119 119 121
-4.940066798953083 -2.2684133314512267 -0.24278469729975027 120 120 121
-4.921578752296491 -2.259914192852551 -0.26247578501320656 123 123 124
-4.610026506387133 -2.1264687220607486 -0.2815003729244484 124 124 127
-4.597625188376376 -2.1208902390448396 -0.2907890983107715 127 127 130
-4.56163740206919 -2.105235721258292 -0.30066627549983327 128 128 131
-4.538364351784405 -2.0950169247212487 -0.3100969233295592 130 130 130
-4.266856452200415 -1.9787718395164273 -0.32512764332939914 132 132 135
-4.280469507696943 -1.9843260349129892 -0.33314504005747536 133 132 137
-4.291929540708026 -1.9889590706930262 -0.3412608717705161 135 135 139
-4.299258908442867 -1.9918269711335 -0.3494968225229058 139 139 141
-4.303755791975846 -1.9934846587069162 -0.3578094593703618 141 141 143
-4.303610316302295 -1.993160125788879 -0.3662067336753547 141 141 143
-4.301230851683005 -1.9918820321972004 -0.37463448704327573 143 145 143
-4.301163687147064 -1.9915907409699638 -0.3830366047543188 145 147 145
-4.31266682835631 -1.9962357972991098 -0.39135593734670937 146 147 148
-4.302900949916873 -1.9918060763100913 -0.3998459039984821 148 148 150
-4.177733701235921 -1.9381547879370096 -0.40873941043896134 150 151 153
-4.178477005558794 -1.9382158763409283 -0.4169245421311676 151 152 154
-4.179220698020744 -1.9382768734524938 -0.42511788879279094 153 152 157
-4.246422022902187 -1.9666720617502 -0.4334515007303074 156 156 159
-4.221783329173014 -1.9559082049333119 -0.4416898471843149 159 159 161
-4.256966184064754 -1.9706450781072646 -0.45018781456443685 160 160 162
-4.268432363690383 -1.9752701367407073 -0.45864267757382254 161 161 163
-4.246906977971508 -1.9658355107494185 -0.4668276812223041 162 162 164
-4.147684333533248 -1.9233001834619756 -0.4740329258486455 164 164 166
-4.115018448967153 -1.9091293218407257 -0.48176215208842327 165 164 169
-4.0907185592561515 -1.8985255796503098 -0.48950007553260205 166 166 169
-4.023321221860755 -1.8695706246748738 -0.49639941389625747 166 167 169
-4.014471948642289 -1.8655540706026899 -0.5041756249352388 167 168 170
-4.010454430887365 -1.8635955468577707 -0.5120256014905542 168 169 171
-4.006509921770969 -1.8616684252137345 -0.5198669384976304 171 172 174
-3.846552045241901 -1.792860774613755 -0.5390321045251616 171 172 174
-3.853620484892778 -1.7956293333470918 -0.546886671061052 173 174 176
-3.8566890734666113 -1.79669539149115 -0.5546421148169761 175 176 178
-3.854343038923806 -1.795457936912813 -0.5622258565821222 175 176 178
-3.8683595533060946 -1.8011790397864331 -0.5704074789788194 175 175 177
-3.876892500429104 -1.8045666404628093 -0.5784362928506206 177 177 179
-3.661338366847481 -1.7126837694224974 -0.5773873722564917 176 176 178
-3.6462603769612194 -1.7060460107889985 -0.5840497733516691 178 178 180
-3.6306925437354494 -1.6992017448642236 -0.5906363722823509 179 179 181
-3.616977252199743 -1.6931464856132556 -0.5972532376762656 179 179 181
-3.603798999700228 -1.687320938371613 -0.6038473856737756 179 179 181
-3.590167619306768 -1.6813043446545293 -0.6103719767003606 182 182 184
-3.5786300882774817 -1.6761786888598884 -0.6169577401819675 179 179 181
-3.5654773451025172 -1.6703682874978996 -0.6234153466761906 180 181 183
-3.5497938550462784 -1.6634846512526287 -0.6296837266077207 180 181 183
-3.5357625869343505 -1.6573043117457051 -0.6359916646087611 181 182 184
-5.267477617731552 -2.3919244669743573 -0.7578808581427144 182 183 185
-5.1720502268126625 -2.3510955261083595 -0.7622700277215908 181 182 184
-5.087060461215018 -2.3147072804629305 -0.766981389924281 184 185 187
-4.830957187746304 -2.2057278968795173 -0.7597176458336937 185 185 187
-5.09975331279577 -2.3958772068582808 1.3229832501149534 197 198 200
-5.270871501239536 -2.4707076528707868 1.3714735375130942 197 198 200
-5.263818659186944 -2.467329463887171 1.3599606190159508 197 198 198
-5.199857416435158 -2.438980590044818 1.3295868817459737 194 195 190
-5.214806244206614 -2.445259662644735 1.3254696699118629 174 170 156
-5.20891757647352 -2.4423957469632467 1.3144541962566456 105 93 69
-5.187848236509079 -2.43287345214439 1.298495108659664 87 72 44
-5.138976803197577 -2.411159617233503 1.2735698539269673 95 80 47
-5.120492349606102 -2.402776472628478 1.2586271803798073 101 85 50
-5.093476827259224 -2.3906544178040185 1.2409999871878088 87 71 36
-5.055025572710841 -2.3735213313231545 1.2198035377433998 68 54 25
-5.0480934481406345 -2.370209306803273 1.2087577005739782 44 34 14
-5.0584593979480115 -2.374479946195737 1.2032017355744529 26 19 10
-5.106115916622325 -2.3950925429666725 1.2093357137959468 12 10 6
-5.118313000293797 -2.4001610819977075 1.2042060717709349 9 8 6
-5.12129037271516 -2.401188436179414 1.196160213147262 11 10 8
-5.1429587954476705 -2.4104039879403003 1.1938818436685632 13 12 10
-5.159230200369212 -2.417252871678611 1.189862511104442 10 9 7
-5.136277751066739 -2.4069197698592997 1.173780258225772 11 10 8
-5.114039220478286 -2.3969016029889567 1.1579888755280572 11 10 8
-5.0870266486117846 -2.384795114349842 1.1408245710869098 8 6 7
-4.9889809035587716 -2.341318633920485 1.0935952795590402 8 6 7
-4.9894794034952925 -2.341265169691736 1.084950520776515 9 7 8
-4.990814044974387 -2.3415774454571205 1.0765457132832388 7 5 6
-5.095390083055309 -2.3870705718635206 1.098468340160408 8 6 7
-5.087701088121981 -2.383428190633517 1.0872282466794232 10 8 9
-5.097363716542949 -2.387378129149278 1.0810478042419545 8 7 6
-5.085984075382805 -2.3821215903629223 1.0687545018140705 5 5 4
-5.0746471573866305 -2.376884788018539 1.0565074029803723 6 4 6
-5.062850466850389 -2.3714479456623683 1.0441630224461753 7 5 7
-5.166371477389468 -2.4164411242095416 1.0645379610527304 7 5 6
-5.151013970589739 -2.4094433007566582 1.0510606922807078 5 3 4
-5.403561039787242 -2.5195739359748868 1.1126285592146845 6 4 5
-5.387098688307238 -2.5120816606924192 1.0984724644885155 6 4 5
-5.378806958743513 -2.5081622633769016 1.0866266204314066 8 6 7
-5.3216575892073905 -2.4825990698268035 1.051931065086828 6 4 5
-5.290536697610826 -2.4687093198971968 1.0340336226094524 7 5 6
-5.240087979335131 -2.4463789472423616 1.0110310161468716 8 6 7
-5.190061103253106 -2.4242381174697862 0.9883120481613401 7 5 6
-5.126297435442399 -2.396102775333516 0.9621090220728952 6 4 5
-5.078196863054089 -2.374814398552105 0.9402620085308786 6 4 5
-5.192998377540893 -2.4232299108127124 0.9149397086813451 6 4 5
-5.181289097736478 -2.4178335772908888 0.9026940178782421 6 4 5
-4.96540816694818 -2.3233631047402414 0.8394102675021744 5 3 4
-4.963731930528002 -2.3223567093219146 0.8300873276694163 6 4 5
-4.980962851314358 -2.329597007014418 0.8254276670433907 5 3 4
-4.993043711752551 -2.3345892460748416 0.8194405628260653 6 4 5
-5.0121295153431635 -2.3426345563961792 0.8151080382170779 7 5 6
-5.2632134625295945 -2.4518296387386807 0.8666898835498391 10 8 9
-5.270227875981562 -2.454595249037379 0.8589091892710237 11 9 10
-5.313322369496285 -2.4730870115760957 0.8596772251199032 14 12 13
-5.208446638561067 -2.427082585025543 0.8253627649533326 18 16 17
-5.226343607188121 -2.434591943190686 0.8201731915232944 25 22 24
-5.260838658371379 -2.4493314442932994 0.8187729462785029 35 31 32
-5.2807896863852175 -2.457730509243514 0.8138890681628159 43 42 40
-5.296530853198419 -2.464293299854016 0.8079646503388882 52 51 48
-5.3111790829091765 -2.47037813195867 0.8017300653041097 45 44 42
-5.333658761397033 -2.4798718501292627 0.7972024270700997 39 38 35
-5.360091144975286 -2.491084140426242 0.7934726289081988 37 36 31
-5.349374539455125 -2.48611863396697 0.7814023315189198 40 39 34
-5.543372130023888 -2.5699656515746643 0.8043774400999701 47 46 41
-5.508174278767744 -2.554336139662542 0.7867197780198569 50 49 44
-5.520710756857502 -2.559483369455857 0.7794295269109253 51 50 43
-5.57986549270919 -2.584913817117021 0.7820136165893747 44 43 37
-4.564526160783455 -2.1420858425533296 0.532571510798877 41 37 36
-4.6407780179323685 -2.174986533544273 0.5397941645899551 42 38 37
-4.624800006920607 -2.1677776289209847 0.5280916541514168 40 38 35
-3.8939189885722736 -1.8497743946919134 0.37318606582143254 38 39 32
-3.8729038002742397 -1.840418742544115 0.3618694098359785 45 42 33
-3.856785477247428 -1.8331935947978168 0.3515873466728562 53 45 35
-3.8338837934959926 -1.8230222363879207 0.3400359230808314 57 50 35
-3.8138670230832616 -1.8141068255027475 0.3291196936144416 66 57 37
-4.021559725393829 -1.9041244219460085 0.36185551499694724 77 64 40
-3.7279247432780496 -1.776339252609834 0.2987853457963693 84 70 41
-3.9173215093626803 -1.8583914158012835 0.32748328365637913 88 73 42
-3.874870795330369 -1.8397323268977726 0.31237017348546836 95 79 46
-3.832573514233242 -1.8211444519917774 0.29743380394481467 99 84 50
-3.796352839111912 -1.8051995098488343 0.28375384857076336 101 85 52
-3.79465446566769 -1.8042455344359398 0.27643457386294035 99 85 52
-3.7961889524326047 -1.804694902624824 0.26969496493869916 94 80 54
-3.815291297286178 -1.8127686829139025 0.26605446271734934 84 72 51
-3.8081903218966695 -1.8094690098146669 0.25775040127046744 75 66 48
-3.8211034449245647 -1.8148541818954358 0.2529371759525557 64 58 42
-3.835926694534947 -1.8210664744175435 0.24840037699013795 50 46 33
-3.847725768559767 -1.825965105778732 0.243292042225137 53 49 38
-3.868665453389072 -1.8348268842909734 0.23967131463596114 58 54 43
-5.2665005390305994 -2.4408176431630944 0.4646845645273896 60 56 45
-5.112975917632898 -2.373945384394169 0.42973970865054856 59 56 44
-5.168442778897445 -2.3977020612523896 0.4293027125926203 63 59 48
-5.088246947105218 -2.362641020082043 0.4068626032151397 68 63 52
-5.022761954104859 -2.333965291608531 0.3870448114324503 67 60 50
-4.900862188245337 -2.2808466475977407 0.35860113664212934 67 60 52
-4.9350194304213515 -2.295367677912166 0.35481541119372295 65 58 50
-5.369737904242224 -2.4834423470255635 0.41233605576414667 66 59 51
-5.376876416049307 -2.486227432278107 0.403464403484203 66 59 51
-5.384338437494502 -2.48915165205094 0.39460878230881713 63 56 48
-4.1591219594542315 -1.957940923682148 0.1956428153029991 63 56 48
-4.165339751141261 -1.9603933182746784 0.18877401171891395 65 58 50
-4.158084619174859 -1.9570117861534488 0.17995871151836207 61 54 46
-4.176495634118276 -1.9647415668764259 0.17477332463201833 63 56 48
-4.187387744552601 -1.9692146688771495 0.168472228045198 62 55 47
-4.1324760075370115 -1.9452079350928027 0.15311617963614654 62 55 46
-4.098003932138913 -1.9300519442199313 0.14071769898656938 63 56 47
-4.10698030225929 -1.9336983086227393 0.13423043123579637 61 54 45
-4.352128103398258 -2.039513091458359 0.15874214064443848 60 53 43
-4.384020564309266 -2.053056081633187 0.15471451155777804 60 53 43
-4.402680913155012 -2.060872475332663 0.14887409114426386 60 53 43
-4.417393268954181 -2.06697932499737 0.14246267504425558 61 53 44
-4.433324853310456 -2.073611507614222 0.1361430399551402 61 52 44
-4.441616916672533 -2.076938967634491 0.12882570122915848 61 52 44
-4.457413714333927 -2.08350936336133 0.12237581289824506 61 52 44
-4.460061372362977 -2.0843946091178194 0.11430373201523503 59 51 42
-4.462036322699225 -2.0849886741523487 0.10613799744129293 58 51 43
-4.460790112671249 -2.0841904983969446 0.09758966865297736 58 51 42
-4.532997438735348 -2.1151270417758 0.09733987745939943 58 51 42
-4.592489639172471 -2.140026990032979 0.0780731687027757 55 48 38
-4.631580354868242 -2.1566387356081353 0.07352645938119151 55 47 38
-4.6662874505291745 -2.171353191890905 0.06837449677896501 53 44 37
-4.674953326666807 -2.174821632208759 0.06043520970100846 52 43 36
-4.6836562707881555 -2.178304902701958 0.052461769780612344 52 43 36
-4.694554483736598 -2.1827344325560016 0.04466577998833021 52 43 36
-4.6817080260284865 -2.176916168629119 0.03453695218753938 51 42 35
-4.658157698807952 -2.1664808563384526 0.023439316724380488 50 41 34
-4.710049387520056 -2.18859434674952 0.01940791253326757 48 40 34
-4.701167976903516 -2.1844871995517523 0.009664437286589167 47 40 34
-4.5792000765678065 -2.131607528276012 -0.010099636510998322 49 42 36
-4.451946934023727 -2.0764625535833026 -0.02987428304772277 46 39 33
-4.338125899586722 -2.02712370049278 -0.04803624512964211 43 38 34
-4.26290315366761 -1.994438292865269 -0.06256515161114795 45 40 37
-4.209769843522344 -1.9712833203817706 -0.07502053682380283 49 45 41
-4.214668287274868 -1.9731462508351691 -0.08266809591371649 51 48 44
-4.833095220128536 -2.239406306229136 -0.04270250463994374 52 51 47
-4.852338152533188 -2.2474131671225996 -0.05045890139406184 57 57 52
-4.8987801544310585 -2.2671358076310737 -0.056283400865341005 60 61 56
-4.885251292664099 -2.261019073339293 -0.06660732633150424 64 65 60
-4.883022668812526 -2.2597708990921594 -0.0760938637755344 69 71 66
-4.914283163772659 -2.2729451109851233 -0.08329175761272833 73 75 70
-4.894508898359502 -2.2641400065682937 -0.09400144170600833 77 79 74
-5.107656335794343 -2.3556192659114883 -0.08961647250018201 83 84 80
-5.132312677012089 -2.365931445038129 -0.09784489228240556 85 85 84
-5.140728112975356 -2.369250079609848 -0.1071590891251264 90 90 91
-4.30620238987169 -2.0097941668977186 -0.16613265100963215 92 92 94
-4.436953444668283 -2.065801516383029 -0.16696360462927995 96 96 98
-4.574004892721614 -2.124504207129948 -0.1679458952637517 99 99 101
-4.519844496041346 -2.1009330547328364 -0.17962529824468842 101 101 103
-4.519676539055997 -2.1005919786229956 -0.18833490222262206 103 103 105
-4.356697448239026 -2.0302297981544233 -0.20509770881375 108 108 110
-4.337951053667352 -2.021908890970741 -0.21439281543621036 111 111 113
-4.323678965268835 -2.0155137693947447 -0.22341820529064937 112 112 114
-4.90659975442178 -2.265852979729062 -0.20626341197206044 113 113 115
-4.9154057945645215 -2.269345833082366 -0.21535666723374813 116 116 118
-4.919206096060744 -2.270686087072722 -0.2246895311230589 117 117 119
-4.918072092036294 -2.2699053170398713 -0.23423083985551763 119 119 121
-4.943397034875466 -2.2804929728858054 -0.242816926878465 121 121 122
-4.95382017328782 -2.2846755557294984 -0.25201613991193705 123 123 123
-4.964423687323879 -2.2889342020756156 -0.26125535714472325 123 123 123
-4.6102250540656255 -2.1365129457107934 -0.28165738233428284 126 126 126
-4.566229272406133 -2.1170697350094296 -0.3007187084856663 130 130 130
-4.537915006354447 -2.104640046087247 -0.31028877556854706 131 131 131
-4.268343505757937 -1.9886530079923177 -0.32527012148067913 133 133 134
-4.2823709109575585 -1.9944166709444355 -0.3332885965036051 134 134 136
-4.295128733017743 -1.9996336881002064 -0.3413902276657831 137 137 140
-4.301030738803938 -2.0019073610013653 -0.3496634652943751 138 138 140
-4.3061611031527045 -2.0038491199829487 -0.3579764804086597 140 140 142
-4.309482623843085 -2.005014184446097 -0.36633866862804754 141 141 143
-4.312820729903856 -2.0061857996349346 -0.374718881113572 144 144 144
-4.307099018437471 -2.0034716370545613 -0.3832032020641051 145 147 146
-4.308912881324716 -2.0039890914484992 -0.39161417379854124 145 147 146
-4.1851139472843455 -1.9506532449388208 -0.40074575945657864 147 149 149
-4.415876544983831 -2.0493190621231716 -0.40808930358986273 150 151 153
-4.424709893014981 -2.0528378000745326 -0.41672355047222764 153 154 156
-4.4382484170655045 -2.0583716869279227 -0.42539799574601456 154 153 158
-4.3284826547716495 -2.0110698557719826 -0.4338778552529327 157 156 159
-4.3089559045030805 -2.0024415220193825 -0.4422993160835273 159 159 161
-4.298310204917564 -1.9976196725172917 -0.4507035207233487 160 160 162
-4.298329093869238 -1.997366622800526 -0.4591556849790468 162 162 164
-4.269703845449691 -1.9848466584919877 -0.46733417282912804 164 164 166
-4.240422274797873 -1.9720489067374725 -0.4754001008793956 166 166 168
-4.01218902322712 -1.8735882550942713 -0.49649898939319137 166 167 169
-3.998961972991829 -1.8676826976980685 -0.5041742118960402 168 169 171
-4.003489336708262 -1.8693754601414416 -0.5121824116329239 170 171 173
-4.000161279981083 -1.86770675060063 -0.5200304669723494 170 171 173
-3.9972566924475834 -1.8662194251309219 -0.5278815176598253 170 171 173
-3.8415517351291983 -1.7991426579768117 -0.5392035477522832 172 173 175
-3.8441831988218946 -1.800032038150562 -0.5469171944092244 173 174 176
-3.8543064156867315 -1.8041238832109396 -0.5548932109758029 174 175 177
-3.855055605449644 -1.8042072578745016 -0.5625862059702056 175 176 178
-3.869441444186085 -1.8101188000945023 -0.570790023662336 178 178 180
-3.87800723386521 -1.8135412692819093 -0.5788289761889502 178 178 180
-3.5577901388394158 -1.676477662054243 -0.5735017822441286 177 177 179
-3.5573817482223995 -1.6760835417153714 -0.5805933211191949 178 178 180
-3.5569732765257367 -1.6756892909511998 -0.5876879567207709 179 179 181
-3.60407941193986 -1.695588760226245 -0.5970009741798267 179 179 181
-3.5765927800899084 -1.6836278154676145 -0.6028792732479386 181 181 183
-3.582867621277067 -1.686085724440304 -0.6103608929175617 181 181 183
-3.570269893206078 -1.680485543802071 -0.6168812246827248 181 181 183
-3.558021201553202 -1.6750357316475493 -0.6233759926791528 182 183 185
-3.545846629813054 -1.6696188903179952 -0.6298316973675235 181 182 184
-5.30951628084693 -2.4217074077544427 -0.7504756639091039 182 183 185
-5.2172357212938 -2.3820110866050688 -0.7553217445456357 183 184 186
-5.117090492056721 -2.3389709760200144 -0.7593070803584763 184 185 187
-5.04184634610445 -2.3065631630493666 -0.7645545753148992 183 184 186
-4.953960177906354 -2.2687732101027613 -0.7686509574736015 185 185 187
-4.870633413784127 -2.232937775506084 -0.7727279967141992 185 185 187
-5.080781652323396 -2.397981404543095 1.3175579269494162 196 197 199
-5.187034496720355 -2.444560770828641 1.344353505011456 197 198 200
-5.195474566369161 -2.448006212323371 1.3381455311706945 195 197 196
-5.218812870046075 -2.458017998170374 1.336848282305465 193 194 188
-5.234424907604137 -2.4646217058098223 1.3329141349270275 168 164 148
-5.210040320345764 -2.453596594279592 1.315781737320257 96 84 60
-5.181603569987548 -2.4407882367595084 1.2974031080112776 90 75 47
-5.1329251536544565 -2.4190640513593635 1.2725363743405318 98 83 51
-5.096610200297351 -2.402791588329482 1.251829013647081 99 83 48
-5.074038713508592 -2.3925768023303537 1.2356613218836712 81 65 31
-5.052322114506871 -2.382740752763377 1.2198392048063131 61 47 20
-5.0565386590500125 -2.3843277182421185 1.2123382482770417 40 32 14
-5.062636781540192 -2.3867426171554653 1.2054127731959088 18 14 6
-5.109020873803617 -2.4068943281149924 1.2111411225291726 10 9 5
-5.122403330353277 -2.4125123446684458 1.2063734475157175 9 8 6
-5.094750768090619 -2.4000656797838165 1.1887794382020211 13 12 10
-5.0960436917980685 -2.4003616743480953 1.1802363541504008 12 11 9
-5.090318868410809 -2.3975689780036165 1.1695227768620016 10 9 7
-5.0897611929420465 -2.3970504125138925 1.1604052388448372 10 9 7
-5.1039657558630935 -2.4030267752001726 1.155777723005784 10 9 7
-5.09702353599877 -2.399698495204519 1.1446949525914627 10 8 9
-5.0934903120668675 -2.3975962765809236 1.1256819437613304 9 7 8
-4.958338361035387 -2.3376197649932475 1.0677457780601483 8 6 7
-5.108819894244215 -2.4035129846180645 1.103231645935133 9 7 8
-5.101334318721761 -2.399946763377475 1.0920202411897473 10 8 9
-5.094305649247118 -2.396581999027671 1.080961967785449 8 8 7
-5.088335885971762 -2.3936831985109936 1.070228317204089 7 7 6
-5.103478551165783 -2.4000626532090195 1.0655702754568739 7 6 7
-5.09205869896265 -2.3947689208036325 1.0532751927060278 8 6 9
-5.191045317816198 -2.4379822813869225 1.0723226962025587 9 7 8
-5.367296054775931 -2.5151260926286074 1.1127950401949405 9 7 8
-5.461560185749195 -2.5562396393235844 1.1296834963886888 6 4 5
-5.449754725633607 -2.550759219811082 1.1167133180583995 7 5 6
-5.437991633309917 -2.5452984790806226 1.1037900309598887 7 5 6
-5.356750232985708 -2.508751195266455 1.0527614127977876 7 5 6
-5.295976922206201 -2.4817859248252545 1.0268457127082888 7 5 6
-5.233907843565484 -2.4542583106594043 1.0007898545366471 8 6 7
-5.170817350076316 -2.426288954747036 0.97467385005868 7 5 6
-4.922007621168456 -2.3149585321117625 0.8380186771245155 7 5 6
-4.9343163511012955 -2.320084114115741 0.8322684709439372 7 5 6
-4.947224726994424 -2.32547100815072 0.8266183249185661 6 4 5
-4.965111927084192 -2.3330381428857065 0.8221455722161273 7 5 6
-4.973184237023231 -2.336302663333837 0.815199592064878 8 6 7
-4.998392407425292 -2.347073505538579 0.8123871833975402 8 6 7
-5.246076641958293 -2.4552980718722703 0.8631963002301213 12 10 11
-5.241898188933112 -2.4531797555606705 0.8527573670723347 13 11 12
-5.255314701696167 -2.45876736031149 0.8465132758830312 14 12 13
-5.279796984756491 -2.46919894752047 0.8428287525168237 17 15 16
-5.332426789827932 -2.491951761291165 0.8456482616550127 28 25 25
-5.528718256832498 -2.57759146580499 0.8816894893569338 35 32 31
-5.529682439017739 -2.5777091414590174 0.8719432507602494 39 38 34
-5.540604273491099 -2.5821847419058592 0.8644680109011864 45 44 39
-5.569046714259496 -2.594326356037228 0.860929462972071 40 39 37
-5.581466797649495 -2.597911842060106 0.8031679534899867 50 49 44
-5.575932549180075 -2.5951830611404434 0.7918595475455368 48 47 42
-4.594646247799368 -2.1651024266964156 0.5475987180567724 42 38 35
-4.5344886791377 -2.1385595037566163 0.5268302021076713 41 37 36
-4.560064331706737 -2.149480949748999 0.5237667759835308 41 37 36
-4.56628144046541 -2.151942498067227 0.5166907786146516 38 38 32
-3.8915350676899414 -1.856956050178711 0.37307107551449226 39 40 32
-3.8737470488259356 -1.8489690282560451 0.3623928480225481 48 45 35
-3.850791248025603 -1.838727081056107 0.35075653775868365 57 47 37
-3.821426691431285 -1.825689203626633 0.33794796686153084 59 51 34
-3.806293819287287 -1.8188677389939731 0.3279913410330918 70 59 38
-4.014936376820136 -1.909732268261684 0.3609352023306801 78 64 38
-3.9717953468009823 -1.8906767219512697 0.34536287263854404 85 70 39
-3.906500850253506 -1.8619575850444323 0.32577898220599655 91 75 42
-3.875297154331991 -1.8481214921787015 0.3127696223961015 98 81 48
-3.8335249729680676 -1.829677573167435 0.29792072297431194 99 82 49
-3.8093275127753405 -1.8189051586118434 0.28642502780296386 100 86 54
-3.8092439705045016 -1.8186537333696926 0.27936885783228205 99 86 54
-3.8070691703799238 -1.817490092307799 0.2719344706496257 89 78 52
-3.8178244742254033 -1.8219652203957137 0.26679276365136817 78 69 49
-3.822794652367404 -1.823916517591087 0.260593848721724 69 62 44
-3.838365459769544 -1.8304887651523096 0.2562109068808607 59 54 40
-3.854529851800576 -1.8373179087659586 0.251868893157034 53 49 38
-3.8673431768182627 -1.8426845047800837 0.24689469784582696 55 51 42
-3.8870298969784534 -1.8510450470079944 0.2430241169906957 60 56 47
-5.152313478686922 -2.402179716350762 0.44606476299071773 60 56 47
-5.134964281211938 -2.394329944249053 0.43369187650789276 62 59 48
-5.118322068119926 -2.38678990707201 0.4214909115636807 63 60 49
-5.094838310128473 -2.376271427858835 0.4082448540719532 68 63 53
-5.0543287915252115 -2.3583400764943545 0.3923728317839279 69 62 52
-4.901942359056664 -2.291693066706743 0.35906875260133475 68 61 53
-4.891291375009969 -2.2867776743379964 0.34831961474170714 67 60 52
-5.370071693784534 -2.494945565784806 0.4126986824648393 66 59 51
-5.377042293712344 -2.497675796968692 0.4037940830940383 65 58 50
-5.384035272893937 -2.5004147972011683 0.3948610127547556 66 59 51
-4.156906552720656 -1.9658262839626017 0.195538726138755 63 56 48
-4.166418348585613 -1.9697275941978367 0.18914391153389198 64 57 49
-4.140711349233931 -1.9583063784311707 0.17769179572907312 63 56 48
-4.194643516765725 -1.9815290357695285 0.17752891471810872 62 55 47
-4.217266396909312 -1.9911284591750582 0.17281756793154512 62 55 47
-4.216866642618983 -1.9907134728171616 0.16486484943655455 63 56 48
-4.295198199085302 -2.0245314024394645 0.16754765859605225 60 53 45
-4.310701336715363 -2.0310255988781925 0.1615629360678995 60 53 45
-4.326064403590815 -2.0374570096705114 0.15549765607084698 61 54 45
-4.423710511255031 -2.0796500328576863 0.16003610571305127 60 53 43
-4.416365582965203 -2.0762045259080497 0.1507943825444097 60 53 43
-4.409039949803147 -2.072768066415261 0.14157680996552235 62 55 45
-4.42741161693731 -2.0804970074846034 0.13556980698359744 61 52 43
-4.439056537838737 -2.0853015183347425 0.12866738827879443 61 52 43
-4.450987942947979 -2.0902289908992495 0.12175114950094357 61 52 43
-4.451093339486888 -2.0900188919524 0.11338339897882066 62 54 45
-4.452410704147886 -2.090334908836533 0.10515132519199788 60 53 43
-4.467973107655347 -2.096835658008999 0.09854523833427864 59 52 42
-4.473284427465035 -2.0988841511253025 0.0907176598031939 59 52 42
-4.507586385006413 -2.113516032009328 0.08608771488061728 58 51 41
-4.523945238463963 -2.120356203058054 0.07936388508031289 57 50 40
-4.544978450787318 -2.1292228558980972 0.07307624470496277 55 48 38
-4.554714588204964 -2.133185082195493 0.06551207112316149 54 46 38
-4.714534650603579 -2.2022599563623566 0.07347726985091996 53 44 37
-4.706335036997625 -2.1984307184848704 0.06372353832417654 52 43 36
-4.703719233086359 -2.1970241382550415 0.054553099085476564 52 43 36
-4.684499889239627 -2.1884170585008365 0.04375658985921138 51 42 35
-4.66873145119544 -2.181308379063273 0.0333582165757329 51 42 35
-4.640986794779748 -2.1690088333354396 0.021881631811469293 51 42 35
-4.535608823156709 -2.122530985634955 -0.013929597759621326 47 40 34
-4.391371404500271 -2.0597638450217186 -0.035107952476097326 44 37 32
-4.301641330459388 -2.0206300070721896 -0.051113077568653575 45 39 37
-4.236873137616733 -1.992320340595458 -0.06470995197254736 47 42 39
-4.188712362040688 -1.9712116988126198 -0.07671824807312455 49 46 41
-4.205213321138317 -1.9781140571341704 -0.08340982124065321 52 49 44
-4.869140530439317 -2.2653842681236065 -0.0398991275697399 54 53 49
-4.858444949368602 -2.2604695089446682 -0.04999846263012042 57 57 53
-4.908334037468805 -2.281785231004477 -0.05558672710421997 63 64 59
-4.906670172977842 -2.280778745374808 -0.06508104261513592 66 68 63
-4.94976839015083 -2.2991463671520598 -0.07143544216126008 71 73 68
-4.973410653707652 -2.3090889722170114 -0.07928598844562251 76 78 73
-4.999161477692176 -2.319941069675855 -0.0870915761034835 82 83 79
-5.120738251826211 -2.372249290416897 -0.0888190700377357 84 84 83
-5.153271039471789 -2.386023424617089 -0.09658650348699227 86 86 87
-4.311762728045638 -2.0214854581165214 -0.16586340338378902 95 95 97
-4.441999339960687 -2.0775492272834377 -0.16674232060896166 98 98 100
-4.435554327614766 -2.074501598725719 -0.17564668551435314 100 100 102
-4.491703835267787 -2.098514557262264 -0.18120270556564744 104 104 106
-4.261769283866989 -1.9988613936111008 -0.20165344563884502 107 107 109
-4.348922917843779 -2.036277269206793 -0.20557226978489818 108 108 110
-4.341163840847878 -2.0326679746398852 -0.21433651053942848 110 110 112
-4.912403536518959 -2.278941293038603 -0.2061326937577307 114 114 116
-4.91356286919381 -2.2791526236326125 -0.21556428526743776 118 118 120
-4.927465663812293 -2.2848675555611813 -0.22449747306648926 119 119 121
-4.93155367468755 -2.2863422333170456 -0.23386299590303172 119 119 121
-4.943115737138261 -2.291043437186329 -0.24298012058036733 121 121 123
-4.951290094014175 -2.294280542600238 -0.25226341339104374 124 124 124
-4.968176667235951 -2.3012773085171467 -0.26130228000597533 126 126 126
-4.574618576631187 -2.130576771849764 -0.3006706368379728 131 131 131
-4.600755548858889 -2.1415817394949257 -0.30891630874123843 133 133 131
-4.286857146058489 -2.0056443473533223 -0.3333785597775146 137 137 137
-4.300718233134493 -2.0113668724413145 -0.34147475233433167 138 138 140
-4.3079370561347154 -2.0142234426673475 -0.3497428651670844 140 140 142
-4.322202396485437 -2.020117075721547 -0.35793720667790363 142 142 144
-4.317112832991224 -2.01766522617234 -0.36644818676661317 142 142 144
-4.470314917577611 -2.0834420132460023 -0.37315049983746273 147 145 148
-4.482382327576791 -2.0883758934841015 -0.3817752986175905 147 146 147
-4.493604967957834 -2.0929441646909734 -0.39045845090677 147 150 148
-4.411757302918361 -2.0574113436881323 -0.3997101042788179 147 151 149
-4.420098203881037 -2.060740653190671 -0.4083227591246643 151 152 154
-4.429056073039937 -2.064334560903241 -0.41697206558441924 153 154 156
-4.441278434970211 -2.069333184318978 -0.4256621015563412 157 156 161
-4.452547058492662 -2.0739195005132744 -0.43440286843129217 157 157 160
-4.459686924389523 -2.076726642360925 -0.4431761075317736 159 159 161
-4.3026736740246685 -2.0088647905215633 -0.45100446898435786 161 161 163
-4.3043991294868835 -2.009348977635638 -0.459485037639377 163 163 165
-4.294568599728638 -2.0048592967505634 -0.4678643899707002 164 164 166
-4.272214177604115 -1.994981277820711 -0.4760642352180078 165 165 167
-4.00906235053174 -1.881257243850319 -0.48881105485281673 166 166 169
-4.0037997025678616 -1.878751504993329 -0.4966455470427237 167 168 170
-3.993529471840441 -1.8740925304401548 -0.5043673206131496 168 169 171
-3.9874729728919136 -1.8712466355061401 -0.5121447759026052 169 170 172
-3.980863752352579 -1.8681636452733195 -0.5198910479579013 170 171 173
-3.9782857300483108 -1.8668143310605165 -0.5277188633959958 171 172 174
-3.9766234737077264 -1.865858806221499 -0.5355668154329034 172 173 175
-3.8359592201075077 -1.8051614633371158 -0.539357388279601 172 173 175
-3.8456435339192745 -1.8090902477761008 -0.5472858365258533 173 174 176
-3.85391247366148 -1.8124095810713918 -0.5552101766793925 174 175 177
-3.851272296964304 -1.8110410770023242 -0.5627897696832964 174 175 177
-3.858304236127425 -1.8138274260669909 -0.5707216414675691 177 177 179
-3.8647838565395958 -1.816375566029556 -0.5786644911258332 177 177 179
-3.5782799478545297 -1.6931054757213118 -0.5746663314272251 179 179 181
-3.569235577881518 -1.6890035999226387 -0.5814336510204816 178 178 180
-3.5622550095451166 -1.6857886802354445 -0.58826276460083 179 179 181
-3.5658297455720085 -1.6871053758423584 -0.5955624395301153 180 180 182
-3.5884898704868964 -1.696612877097436 -0.6038097409444648 180 180 182
-3.5774467358229805 -1.6916542291819079 -0.6104440733381111 181 181 183
-3.5639838528861336 -1.6856584984652119 -0.6169126833833098 182 182 184
-3.5518091410858936 -1.680216880340267 -0.6234035622420904 180 181 183
-5.250767571966587 -2.4081394234521127 -0.7474928327185051 183 184 186
-5.1655504642378025 -2.3712800706170247 -0.7526627353272468 183 184 186
-5.076599418538484 -2.3328299295200323 -0.7572643068961028 183 184 186
-4.979955848104883 -2.2910928060971885 -0.7610126336609985 184 185 187
-5.02860180895687 -2.385312900184469 1.300927418841491 197 198 200
-5.2249032613109385 -2.471724823586086 1.3489459243656468 197 199 200
-5.238718270057214 -2.4775681099268447 1.3444335276050232 192 193 187
-5.250165325042993 -2.482361295862381 1.3390857666168812 163 158 141
-5.202317508592638 -2.4609011287319866 1.3142036460201143 90 77 53
-5.179681331161864 -2.450606549509663 1.2977235310265018 92 77 50
-5.131605247363372 -2.429053607652396 1.2730410910581242 102 86 54
-5.098071260564589 -2.4139415361481427 1.253223126670286 102 85 48
-5.079843702584617 -2.4056063159882575 1.238440762405471 73 54 24
-5.056817949264045 -2.395149728510974 1.2221796895550772 51 38 18
-5.055298600535633 -2.3942103438289166 1.2128394733995183 28 22 10
-5.044797205139943 -2.389297532993467 1.2006548004060886 14 14 7
-5.061444029308615 -2.396393885765592 1.1970505995721732 10 9 5
-5.066293022880145 -2.398270521864215 1.1896883480621132 12 11 8
-5.0746731930022815 -2.40170803394045 1.1834037330752076 13 12 8
-5.051917175087959 -2.3913771674260924 1.1674401225202349 10 9 7
-5.051627878135485 -2.390981336960255 1.158469917985585 11 10 8
-5.082934601625725 -2.404552735986961 1.1591729426155246 11 10 8
-5.081767622043543 -2.4037670401774185 1.1498717176729327 12 9 8
-5.064268351716392 -2.3952244854423594 1.1177681782268507 9 7 8
-4.892586077341562 -2.3185840592569837 1.0404413267694215 9 7 8
-4.914937968451176 -2.3281945220685363 1.0383234635400458 9 7 8
-5.012200557735693 -2.3708822983399145 1.0578982228704141 8 6 7
-5.103386787673666 -2.4108767611765285 1.0753734054240804 9 8 8
-5.104448661063362 -2.4110729210311246 1.066641071413562 8 6 7
-5.1041457372872046 -2.410666333198005 1.0575097911369453 8 6 8
-5.483477881363873 -2.5775297687088567 1.1463686050022324 9 7 8
-5.523029898999101 -2.594689741044723 1.1477293193676952 8 6 7
-5.513955194127881 -2.590390181885711 1.1354037988389603 8 6 7
-5.501929452822033 -2.5847894877965585 1.1222871847466798 8 6 7
-4.3023746289682405 -2.055351112780543 0.7826429864079087 8 6 7
-4.298647899353443 -2.053475653435091 0.7739433378276679 8 6 7
-5.2170312687757985 -2.4557315954003442 0.9317523157321936 8 6 7
-4.916351524624235 -2.322739782505832 0.8372338119265711 7 5 6
-4.956524489474903 -2.340164641912686 0.8384661941475045 7 5 6
-4.978282785802749 -2.3494766825056894 0.8349726449143144 7 5 6
-4.990737750743324 -2.3546902750715226 0.8290999175721341 7 5 6
-5.138133004539986 -2.419305093170498 0.8562521332502042 8 6 7
-5.114707613738705 -2.4087153385410165 0.8413104575891226 9 7 8
-5.216771876319697 -2.453356930167109 0.8567601406593137 11 9 10
-5.188765221067275 -2.4407491187603543 0.8406519510537176 13 9 10
-5.227669195803553 -2.4575848875398183 0.8405635556076057 15 12 13
-5.259520599028044 -2.4713135542584626 0.8386651562780796 20 17 18
-5.307047297852385 -2.4919341068061223 0.8403233731052391 31 29 27
-5.394527895285175 -2.5301227437046907 0.8511043870487982 36 35 31
-5.418052235522013 -2.540174680747651 0.846799278547288 40 39 35
-5.437182070148477 -2.5482914984567655 0.8413974111627767 43 42 38
-4.8478922076101645 -2.288631152489487 0.6887991477179218 37 38 33
-5.546981439799691 -2.593542205277838 0.7660634887288527 39 40 35
-5.546342445193002 -2.592957364416995 0.7558451541582869 39 37 34
-4.591559291157139 -2.1734195089862705 0.5474089644926894 41 37 35
-4.502772760749926 -2.134186267757153 0.5207381571144349 40 36 35
-4.521701578329969 -2.142247298482629 0.5163710575729779 39 36 35
-4.517422142016787 -2.140119431716157 0.5072343736112959 36 37 32
-3.8763104207771995 -1.8585045173099304 0.37038076805008735 40 39 33
-3.860363701737635 -1.8512919693000476 0.36008914164238237 50 44 34
-3.83902151725738 -1.8417136849437803 0.34878756447760373 58 49 34
-3.8138270070009237 -1.8304475325494503 0.33680637933049595 62 52 33
-4.022447930204092 -1.9217481119268518 0.37012530999229265 74 61 38
-4.007528373666055 -1.9149810542383956 0.3598639600800092 80 66 38
-3.958652354396762 -1.8933240212129983 0.3432077049585218 88 72 42
-3.9005699911472536 -1.8676352637357236 0.3249925151825943 93 76 44
-3.87965676495136 -1.8582490039695474 0.31390184324746706 97 80 47
-3.849338804121737 -1.844742015510386 0.3011482633110253 102 85 55
-3.8063542576894585 -1.825686078272266 0.28618735465602096 99 85 54
-3.818320341942578 -1.8307180827518346 0.2813093587658958 95 83 51
-3.819650448535867 -1.8310877623323454 0.2744804365492103 89 79 53
-3.841733294500869 -1.8405502652169003 0.2713180474068161 76 65 47
-3.83345905812302 -1.836710495712941 0.26274912255501115 66 57 41
-3.8469353405012208 -1.8423994118996696 0.25797942164337107 59 53 41
-3.8683546302658467 -1.8515657543577206 0.2545200417746696 55 51 43
-3.8799311534173855 -1.8564190212821605 0.24930634552076336 58 51 46
-3.9008658969792083 -1.8653687576531977 0.24561876055594245 59 53 47
-5.16413519723124 -2.418254465157105 0.44837821817042256 59 55 47
-5.14590955854333 -2.409987526583466 0.4358316651963161 62 57 49
-5.133989819113961 -2.4044826605345855 0.4243706987515392 64 58 49
-5.102233883018657 -2.390297191592297 0.40975771062235666 66 60 51
-5.033917505646553 -2.3601155926366664 0.38944261037862704 68 61 52
-4.903024628700494 -2.302560283149145 0.3595372691857477 66 59 51
-4.86179596182839 -2.2842478343692685 0.34402969243682047 67 60 52
-5.368315197690892 -2.5055526239364294 0.41274096988200726 66 59 51
-5.373820092252052 -2.5076597994884904 0.40361038195313603 68 61 53
-5.377442514281155 -2.5089428937960667 0.39417123779415464 67 60 52
-4.158631697059216 -1.9756729159552728 0.20378198359971522 65 58 50
-4.128060902971856 -1.9620719892224079 0.19154195831462306 64 57 49
-4.119292695017711 -1.9580058392668533 0.18255605906197014 64 57 47
-4.112374954858412 -1.9547493857557932 0.17386106527668588 62 55 46
-4.180592723065612 -1.9843326201118479 0.17575674963971044 62 55 45
-4.211564956388548 -1.9976315110929486 0.17222574758953701 63 56 47
-4.214113214891956 -1.9985068539436146 0.16468158132019428 64 57 48
-4.284181824335733 -2.0288813002964727 0.16625010479147662 60 53 44
-4.29825754026772 -2.034787718113235 0.16009002692777807 59 52 43
-4.339262774241824 -2.052454896546779 0.15741421335833772 60 53 43
-4.422055440247533 -2.087615030843814 0.13506554078610244 63 54 45
-4.437172866860504 -2.0939628621073494 0.1285918822760045 63 54 45
-4.437173479843102 -2.0937110557773324 0.12023639983300216 63 54 45
-4.437557884310881 -2.0936265731954697 0.11192105698998822 60 52 42
-4.448718178930725 -2.0982438631824865 0.10485692460909546 58 51 41
-4.470454228913232 -2.1074738053565034 0.0989612023797718 57 50 40
-4.4909449625160995 -2.1161579117309506 0.0928388386574367 58 51 41
-4.4858067178465495 -2.1136608480571932 0.08378545058879272 58 51 41
-4.491406312904033 -2.115847169609823 0.07591968525721293 57 50 41
-4.53969632990463 -2.13664841348405 0.07261614337774736 56 49 41
-4.555984366881667 -2.143490997215619 0.06574764716135839 54 45 38
-4.689066412056422 -2.201248053420419 0.07093276016352945 51 42 35
-4.674286576833261 -2.1945377757269466 0.060548956136982746 52 43 36
-4.691835515393808 -2.2019191188727962 0.05344894074343298 52 43 36
-4.680843363457706 -2.196860605617122 0.04347542295259088 51 42 35
-4.664517315978657 -2.1894790340296093 0.03302328180486902 51 42 35
-4.622443002487998 -2.1708813685775903 0.020193886106857573 50 41 34
-4.81288522209675 -2.2532999162429777 0.019904247184712176 47 40 34
-4.600682389982739 -2.1606092520672013 -0.008103214127701763 45 38 32
-4.4005327196224275 -2.073190814927992 -0.034275237722102725 46 39 35
-4.25238392392025 -2.0084353754480593 -0.05527774435882016 46 41 38
-4.211089058079974 -1.9902134641093103 -0.06683450972297955 47 44 38
-4.159265751827905 -1.967413280550495 -0.07909890232626926 50 49 42
-4.853975868323921 -2.269245234073163 -0.04107190848586206 57 57 53
-4.881885729345594 -2.2811094063168627 -0.048224625967314805 61 61 56
-4.918020640177061 -2.2965485433880173 -0.05488029589473131 65 66 61
-4.911808522949468 -2.2935627406402213 -0.06472739755640355 69 70 65
-4.979527113323833 -2.322732614031006 -0.06937188479922418 75 77 72
-4.996910021535826 -2.3300046567504333 -0.07771290342946302 79 80 77
-5.009716258619255 -2.335284498414554 -0.08642928936970262 83 84 82
-5.044616054463023 -2.350168229737986 -0.09377517569961036 87 87 88
-4.3077559443308875 -2.0295565797963633 -0.14957962316744755 89 89 91
-4.308774149271463 -2.0297491648276837 -0.1578039498661865 95 95 97
-4.313283472202123 -2.031458695977632 -0.16583208168468977 97 96 99
-4.299463479836577 -2.02520275550299 -0.1749265368217533 99 99 101
-4.302665112362036 -2.026343810599139 -0.18303690415704765 101 101 103
-4.267137475983826 -2.010659389074016 -0.19322419042372296 104 104 106
-4.25156196045976 -2.0036454130187713 -0.20225928783681113 108 108 110
-4.2347386862734835 -1.9960911387693507 -0.2113024313758085 111 111 113
-4.303470503273411 -2.0256912141626815 -0.21622347254968022 113 113 115
-4.535745460079644 -2.126293087921731 -0.21395207841623387 114 114 116
-4.923500712526108 -2.2940814431972156 -0.21527943910834713 116 116 118
-4.923049089656272 -2.2935983888438627 -0.2248120170271437 119 119 121
-4.943989916450974 -2.302398821341886 -0.23353589020539478 123 123 125
-4.955866616787511 -2.3072636507214557 -0.24267290746488845 122 122 124
-4.938457921075188 -2.2994213862411987 -0.25286320540865215 126 126 127
-4.9328136901952595 -2.296684299116828 -0.26261342416071287 128 128 128
-4.598544869892762 -2.1511413389137344 -0.29127193402921814 129 130 129
-4.578761324118529 -2.1422930886404 -0.3007363780791926 132 133 132
-4.585445541027819 -2.1449224365343715 -0.309477899389087 135 135 135
-4.277210398405312 -2.011030956123559 -0.3254220538454773 135 135 135
-4.289956712034861 -2.0163041795152195 -0.3334981070110562 136 136 137
-4.306136680340189 -2.0230638866322392 -0.34156329477563996 138 138 139
-4.318559551239855 -2.028193481174079 -0.3497598787976972 140 140 142
-4.328793023731136 -2.0323728594829187 -0.3580426405989774 142 142 144
-4.3373565339427245 -2.0358274291119303 -0.36639218974892906 142 142 144
-4.478151147582565 -2.0965581975431027 -0.3732874294267069 146 146 148
-4.492523935488225 -2.1025188144665865 -0.38191299055093364 149 149 151
-4.5080954387786525 -2.108996691495231 -0.3905905403954706 149 151 152
-4.417210578627927 -2.069378339932844 -0.39992236209565346 150 152 153
-4.4252072225515775 -2.072579052315609 -0.4085538594287986 153 154 156
-4.433284220198973 -2.0758134481194395 -0.41722166338351996 153 154 156
-4.442362633191486 -2.079480159891573 -0.4259264949315271 158 158 161
-4.453713706571998 -2.0841291497671115 -0.43467692946210357 158 158 161
-4.458346423370151 -2.0858696344392302 -0.4434493452572472 159 159 161
-4.307322203126125 -2.0202661785476987 -0.45130810069303967 161 162 164
-4.3082977600953 -2.020432282663333 -0.45979833471628373 162 163 165
-4.283859950053214 -2.009606256494247 -0.46804677774380604 164 163 167
-4.268682229850218 -2.0027875666416928 -0.47631576735874753 165 164 168
-4.231270771314042 -1.9863564845978234 -0.48422596265640355 167 166 171
-4.000642975148673 -1.886393034759147 -0.48896685615936103 166 167 170
-3.9908489646068293 -1.8819203587140791 -0.49671098508221584 168 169 171
-3.985198520678021 -1.8792396460062217 -0.5045034093705709 169 170 172
-3.973200385992945 -1.87381614297643 -0.5121426935146356 170 171 173
-3.971166468774903 -1.8726995599113232 -0.5199741336335026 171 172 174
-3.839354802351112 -1.8150514513546179 -0.539773812227197 173 174 176
-3.8436212677889787 -1.8166635740851051 -0.5475465355839795 174 175 177
-3.8503654925029798 -1.8193449904299301 -0.55542305127692 175 176 178
-3.853236272984822 -1.8203530576289553 -0.5631949311124785 175 176 178
-3.862086563144347 -1.8239420051696684 -0.5712045986745664 176 176 178
-3.8733701243387904 -1.8285800648999107 -0.5793487530812957 178 178 180
-3.8457741569680763 -1.8164368195074998 -0.5859499159754911 179 179 181
-3.5776465594307507 -1.7005009867347531 -0.5821289516265006 179 179 181
-3.5729123531209934 -1.698242217160926 -0.5890802059330381 179 179 181
-3.5727835727612756 -1.6979706816561442 -0.5962332748003295 180 180 182
-3.5817727235884878 -1.7016320305206678 -0.603835244799149 180 180 182
-3.5690117979527587 -1.6959115816023342 -0.6103738536061556 181 182 184
-3.556947344207858 -1.690492837854141 -0.6169039137793716 181 182 184
-3.5456085116618445 -1.6853882454189717 -0.623431069417749 181 182 184
-5.155584999894978 -2.378943877480771 -0.7319917275981371 182 183 185
-5.142546329002924 -2.373013513481616 -0.7415036866316225 183 184 186
-5.126848261120266 -2.3659384627848943 -0.7508050053940658 184 185 187
-5.030248267162131 -2.32400640683012 -0.7548358406301099 184 185 187
-5.039786734535684 -2.3278117837578827 -0.7655446153646814 184 185 187
-5.014820413443483 -2.389536219116924 1.297235838052026 197 198 200
-5.331146341875929 -2.530030639440196 1.3946987868550154 197 198 200
-5.2449093107452525 -2.491385689624943 1.35661132230744 195 197 199
-5.26144977846175 -2.4984715360853773 1.3529666069944812 191 192 185
-5.266520058187001 -2.500453418862865 1.3454676287158411 158 151 132
-5.193956205475233 -2.4679058092590496 1.3124141534123202 89 74 48
-5.172952955293525 -2.458295076109179 1.296472292871833 90 74 47
-5.13469493010463 -2.4410138041540086 1.274981705575144 104 88 53
-5.09989001989595 -2.4252715735756536 1.2547348787263262 100 81 44
-5.126371435639431 -2.436778090417726 1.2543360279366345 70 52 24
-5.099645662216857 -2.424630757313274 1.2367996853415737 41 28 12
-5.075311092942913 -2.413548786164878 1.2201115516737224 22 18 10
-5.037622528553105 -2.396534576765397 1.1992708519164692 11 12 7
-5.063473094823171 -2.4077578733276135 1.1985758986642536 9 9 4
-5.0712127135609215 -2.4109316266028205 1.1921106954237375 13 12 8
-5.0779023650376995 -2.4136379705484945 1.1852860135218484 16 15 11
-5.0876021233374 -2.417680545313823 1.1793655693410885 10 9 6
-5.097769086236276 -2.421929462458779 1.1735500202376832 11 10 8
-5.100603369382036 -2.422920755699555 1.165446531866083 11 9 7
-3.8636263959644235 -1.872972877783188 0.765822492191172 9 7 8
-4.95179977445452 -2.3544916040915624 1.0411227314637768 8 6 7
-5.132909615616354 -2.4345664594846967 1.0847081711156776 9 7 8
-5.145107599879998 -2.4397055213316428 1.0791183685055352 8 6 7
-5.163602507597477 -2.4476356697033914 1.0752788833201723 8 6 7
-5.610490095056349 -2.6455225629610766 1.1929791169609714 7 5 6
-5.6002024693574946 -2.640664925117326 1.1801311339179097 8 6 7
-5.582346255914279 -2.6324528801905913 1.1651907523878091 8 6 7
-5.571900820062101 -2.6275274562949127 1.1523714685603244 8 6 7
-5.2038897119889045 -2.460801951330524 0.9290837954913314 6 4 5
-5.1908004902631415 -2.454731493641273 0.9164293262938759 6 4 5
-5.1777673562585935 -2.44868705509629 0.903829318262533 8 6 7
-5.234078946009745 -2.473323890959136 0.9086423930019245 7 5 6
-5.137495081716543 -2.4303173754481655 0.8752158494954805 8 6 7
-5.144736675167317 -2.4332452593946177 0.8677693037051661 9 7 8
-5.131469727474608 -2.4271018854188315 0.8552620564940623 10 8 9
-5.116726557815906 -2.420306925561163 0.8424365324962275 10 8 9
-5.173361609877426 -2.445074295167156 0.8469087066383421 13 11 12
-5.1110902188828895 -2.4172655294569148 0.8226467183720183 17 13 14
-5.18619462359805 -2.4501914173377815 0.8313149086446194 20 16 17
-5.219522466710366 -2.464643681901006 0.8298360952679549 28 24 25
-5.241468982507298 -2.474062226708824 0.8255630628556434 38 36 34
-5.07208568638082 -2.398929511292399 0.7766608154759518 39 38 34
-4.9902004862055565 -2.3624753882390754 0.7485704129089601 49 48 44
-4.935882766798638 -2.338208937703711 0.7270856887647219 52 51 47
-4.927722881959678 -2.3343379145094523 0.716288768647438 46 48 41
-4.871327388297158 -2.3091624734761975 0.6946282897685196 42 42 37
-4.870598322318278 -2.3085771207549435 0.6856280835769152 47 45 42
-5.564356960822786 -2.6125573071825796 0.7601728344284833 43 41 38
-4.591586578700167 -2.1831119090211004 0.5478665319295717 40 36 35
-4.468244786873435 -2.1284554315872946 0.514061310259094 41 37 36
-4.477782566817032 -2.1324184035706923 0.5078339084200342 41 37 36
-4.469222935006587 -2.1283993212828607 0.49790318314189796 37 37 32
-3.8785742647815806 -1.8677134545332215 0.37119741118723126 44 41 35
-3.8615851833831782 -1.8600106329573332 0.3606878657281346 51 45 34
-3.829952562598603 -1.8458541148636722 0.34734923391627603 59 50 33
-3.8049454863067877 -1.8346212717193762 0.33541367172686565 67 56 37
-4.025294081876714 -1.9315259898905404 0.3710303593231926 77 64 40
-4.014353515733798 -1.9264838167852556 0.361519875768994 84 69 41
