ply
format ascii 1.0
element vertex 694
property float x
property float y
property float z
property uchar diffuse_red
property uchar diffuse_green
property uchar diffuse_blue
end_header
-4.1583809421768265 -1.417274801957863 -0.8003318324850834 185 186 188
-3.8345127212386303 -1.4702208647352668 -0.7720025360598651 186 186 188
-3.508382546590287 -1.5207970259854224 -0.734382095221237 187 186 191
-3.28351461958504 -1.5560733048447863 -0.7097830307197863 187 186 191
-4.80052570375238 -0.833523726603759 0.7625970217117148 198 198 201
-4.898901467010235 -0.8119675639456732 0.7727344125083184 199 200 200
-4.848398424549263 -0.8265023971894698 0.756036642959488 197 199 195
-4.798798955719063 -0.8407771644553973 0.7396376755698257 188 190 185
-4.749168157231549 -0.8550182691763848 0.7233697727338639 174 174 164
-4.9402138998700025 -0.8113286119184706 0.7491125248847466 134 126 100
-4.838214079339635 -0.8381653073564184 0.7237353474094614 95 78 42
-4.739595621973983 -0.8641046815850582 0.6992248447043408 103 83 42
-4.663312909984615 -0.8846167718831318 0.6787823507035731 106 87 44
-4.551180939811462 -0.9136243764503235 0.6525242891311083 104 85 43
-4.469192864296088 -0.9353511458686179 0.6316114512834357 82 62 27
-4.3970651552575575 -0.9546621553797079 0.61256017188246 59 45 17
-4.325226346693636 -0.973843220718333 0.5937594833189511 45 36 14
-4.244712048054547 -0.9950195116293936 0.5737525086468718 30 24 10
-4.650024693081413 -0.9011823458793704 0.632169290077365 20 17 10
-4.654045452183088 -0.9024704666755845 0.6253958630394063 13 10 6
-4.65793186064095 -0.9037956579832347 0.6185833035254116 9 8 5
-4.661529721687053 -0.9051940286202773 0.6117080306016127 9 8 6
-4.662798403540316 -0.907144423579967 0.6044547187301794 11 10 8
-4.662379250163009 -0.9094934431667265 0.5969320965560754 10 9 7
-4.665276354582991 -0.9110681136711825 0.5899092286386665 9 8 6
-4.611993278826179 -0.9257662439979972 0.5744024147696913 10 8 7
-4.611881864527579 -0.9280262220347067 0.566983110354671 10 8 9
-4.628264144936855 -0.9264509834388983 0.5619961089440793 7 5 6
-4.630936855589056 -0.9280753531943002 0.5549483617569779 7 5 6
-4.641960648781966 -0.9277686140024727 0.5490965598202686 7 5 6
-4.6458227320266605 -0.9291300748209486 0.5421789722361177 8 6 7
-4.653660642217348 -0.9295789797366896 0.5358081691157779 9 7 8
-5.522241562073928 -0.7343557783259171 0.641547408760303 8 6 7
-5.536936389560939 -0.7336363335086727 0.6347759717624522 9 7 8
-5.531808505155052 -0.7374733127232568 0.6252565186670296 11 9 10
-5.545038041751685 -0.7371106937090007 0.6182156238449279 11 9 10
-5.5409863672414 -0.7407056117820913 0.6088277530176729 12 10 11
-5.5516256308155265 -0.7409532963664686 0.6013783744550527 12 10 11
-5.548336329805839 -0.7443787498687402 0.592077059478197 12 10 11
-5.527620779214102 -0.7517568052730172 0.5805354860479528 12 10 11
-5.505323760445423 -0.7594766647454675 0.5688466138259869 13 11 12
-5.48234189483624 -0.7673335816861051 0.557130268832394 11 9 10
-5.449199584384118 -0.7774635127687222 0.5442123309567688 12 11 10
-5.44303268944357 -0.7814946861339156 0.5346967323040841 13 12 10
-5.478188344879996 -0.7762407110130997 0.5302031944930097 13 12 10
-5.481249734395756 -0.7782151194196529 0.5217533895648785 15 14 12
-5.480054731435926 -0.7811467741049138 0.5127835154687728 19 18 16
-5.461764575752817 -0.7878964752775317 0.5018129638152451 19 18 16
-5.508838480318723 -0.7800674250109435 0.4984267603162318 22 21 19
-5.504568402689647 -0.7837004693042172 0.48904862651212855 26 23 21
-5.498286169643404 -0.7877784764037565 0.4794496982280336 25 21 18
-4.333688602440261 -1.0505447324165946 0.33432715241286604 26 25 21
-4.3391877467755275 -1.0514934059834895 0.3277574388765133 29 25 24
-4.3459123152462364 -1.0521791539792362 0.3212954786517719 29 25 24
-4.333369692451365 -1.0571050894301859 0.31278728235284625 27 23 24
-4.346172608561105 -1.0564655446940456 0.3069298154465616 28 24 25
-4.365165816366188 -1.0544852919880399 0.3016581769927774 27 23 22
-4.380733606925155 -1.053271898213644 0.29597961410409934 29 25 24
-4.395063434185951 -1.0523441897869912 0.2901256928913448 27 23 22
-4.3944421994981795 -1.054681625863756 0.28276735806605324 26 22 21
-4.4045995871161425 -1.0546820809572641 0.2764374313974661 26 22 21
-4.41477959116985 -1.0546887660174076 0.2700727701013975 28 24 23
-4.666613900959605 -1.0025028393942454 0.2860955033814969 27 23 22
-4.440626914959377 -1.0535527292831657 0.2577333552173895 25 21 20
-4.451554266526653 -1.0534346796954903 0.2513163933158331 23 19 18
-4.430823365125613 -1.0601241898770755 0.2420659646011638 22 18 17
-4.2699224872073 -1.0968210452997957 0.220713397425374 21 16 18
-4.219618574602872 -1.109733285869356 0.20926822631652942 21 16 18
-4.028139671087387 -1.1527116780129916 0.18615221481437771 21 17 15
-4.003452369313727 -1.1600187872631327 0.17732027449621213 26 22 18
-3.949423038536826 -1.1735362711744537 0.16619062379048954 34 29 21
-3.9375951832206186 -1.1780630622638366 0.15855971628790577 48 39 27
-3.912834695013597 -1.1853152882678633 0.14995523624807228 65 51 34
-3.8875231280409137 -1.1926627302199715 0.14137858820733273 86 70 47
-3.896404204510053 -1.1927900873479649 0.13542334365164432 101 85 55
-3.9187713018175594 -1.1900943742932077 0.13042041764967194 115 98 62
-3.9121138345893525 -1.1935047196988275 0.12326765421475694 122 104 66
-3.8914450493586434 -1.1998410290046218 0.11514890011022705 124 108 70
-3.8860077321489155 -1.202981433809064 0.1081304211302363 120 106 65
-3.8848413525257826 -1.2052292378052794 0.10140873834780662 112 98 62
-3.939641981878109 -1.195850153907005 0.09834473682646139 88 72 43
-3.890899704629106 -1.2079873454495882 0.0884948323637742 70 57 32
-3.899402896906645 -1.2082410065480769 0.08235649929812194 63 52 29
-3.9120565601494124 -1.2076477708919067 0.0764385713871425 66 55 33
-3.911525751400588 -1.2097827276669093 0.06969483840200008 70 61 41
-3.9139722819969744 -1.2113072776010125 0.06311877499074836 77 69 48
-3.93212992446348 -1.20961551334866 0.05741178133603608 80 72 51
-3.942998832095088 -1.209432995412096 0.05124485604068818 80 71 51
-3.9823770135243604 -1.203445325237495 0.046551722527574446 83 72 52
-3.9922657518946076 -1.203499428020825 0.04021140570325066 84 73 53
-3.969715225435146 -1.210153187850966 0.03221313225280764 85 74 54
-3.9900234528905725 -1.208102772564872 0.026354681624236376 85 74 55
-4.013226066108184 -1.2054879655061936 0.02056310696522623 84 73 54
-4.036208078836914 -1.2029411633140397 0.01468363174307763 83 72 52
-4.075347570531558 -1.197166228779833 0.0094342844201587 83 71 51
-4.690161295232525 -1.0758533550373564 0.02836853138775175 80 67 50
-4.5631838638919495 -1.1036984743855087 0.015211767290995937 83 70 53
-4.556792640613464 -1.1073298826751916 0.007160604795954484 82 69 53
-4.512240737697587 -1.1185649665911175 -0.002310807627504019 81 68 52
-4.51585317192482 -1.1201808683195793 -0.009915976613761313 81 68 52
-4.528194413767905 -1.1200702482399563 -0.01723846173085164 77 67 52
-4.535695699122514 -1.1209313331836175 -0.0247653454547605 76 66 52
-4.558760822796356 -1.1187280706508633 -0.03183496336801794 73 65 49
-4.566538540243474 -1.11956027321484 -0.039438368877873886 76 70 54
-4.576215130046056 -1.120028690630714 -0.04701939278742828 74 68 52
-4.584130165476557 -1.120853680308974 -0.05468445155338775 74 67 53
-4.592532256397354 -1.1215929647621368 -0.06236896847853579 75 69 56
-4.603424383941347 -1.1218564473656885 -0.07002823912012945 78 73 61
-4.5303758969999866 -1.138470171125911 -0.07956804741506773 79 75 64
-4.535253868989676 -1.139886359626142 -0.0872999173201372 81 77 66
-4.543365127973207 -1.1406829928881321 -0.094993267905913 87 83 73
-4.546792196189266 -1.1423944332974618 -0.10279952653845303 97 93 84
-4.552339322310455 -1.1437025902484166 -0.11059032755667353 106 101 94
-4.557886288251316 -1.145018130147074 -0.11840549309626125 113 109 104
-4.5637507151688315 -1.146280148229102 -0.12624109704344932 121 119 116
-4.569827357020536 -1.1475092425358955 -0.13409982150292188 129 129 126
-4.578129356465527 -1.1483215631458912 -0.14196399225964162 138 137 137
-4.586598947600589 -1.149112006415692 -0.14986008538131146 142 141 141
-4.594329463122301 -1.1500529765341443 -0.15779449726893358 141 143 142
-4.597192103118695 -1.1519253921934716 -0.1657825083727924 141 142 141
-4.391228917289218 -1.1932528065498487 -0.17440356869845797 139 139 138
-4.5925015427419975 -1.1576474883084908 -0.18182100044100358 139 139 139
-4.587367025495572 -1.1610325810435347 -0.18983893873835422 137 137 139
-4.5876809095748765 -1.1633934214284385 -0.19785743936519584 136 136 136
-4.586295404419587 -1.166074454952848 -0.20587815920202956 134 134 134
-4.585248374176912 -1.1686931446891622 -0.213903177181632 133 133 133
-4.550851951703072 -1.1775169617211212 -0.2217117859913207 131 131 131
-4.534023904273791 -1.1830499521775384 -0.22956156084713442 131 131 131
-4.562137866331305 -1.1802515647077707 -0.23780476626244784 131 131 131
-4.50887667417101 -1.192502943312186 -0.24521759692225087 128 128 128
-4.499227819098246 -1.1966759242977285 -0.2530337061525809 128 128 128
-4.4920977389909975 -1.2003791848162841 -0.2608626255436446 126 126 126
-4.481108791757277 -1.2047843259664244 -0.26861310075411227 127 127 127
-4.473523107504479 -1.2085593201634346 -0.2763958608424679 129 129 129
-4.706669893599663 -1.1684765693665242 -0.28883551163682064 126 126 126
-4.696985237539155 -1.1727392310190565 -0.2969264836540796 126 126 126
-4.686815248268807 -1.1770826213990597 -0.30498258030841596 125 125 125
-4.4500849561767195 -1.2223589448095922 -0.3075198277254828 125 125 125
-4.4295809499521415 -1.2284390564464005 -0.31489230211088737 125 125 125
-4.470171132314744 -1.2235207498206213 -0.32388402560122476 124 124 124
-4.232955348465286 -1.2684391150562202 -0.32493265502296065 124 124 124
-4.213628613655483 -1.2741791424188276 -0.33191170021469973 123 123 121
-4.193443054795693 -1.280055405692773 -0.3388071017734392 125 125 123
-4.174479170384935 -1.285696755066374 -0.34568523400116646 123 123 121
-4.134761873036523 -1.2950009072789146 -0.35177039657066944 124 124 122
-4.1072121242191635 -1.3021169396679189 -0.3581857721409436 124 124 122
-5.184071887104369 -1.1200205906172864 -0.4257092252396729 124 122 124
-5.19456943286422 -1.1209541157260752 -0.43534292674743824 124 122 123
-5.19755386157498 -1.123210288123157 -0.4446784425 126 124 125
-5.140483939131868 -1.1359124351668406 -0.4512119744222365 125 123 124
-5.1194854963323575 -1.1423074712711758 -0.4593199385603355 127 125 126
-5.106405995782494 -1.1473153178238757 -0.46776506333140855 128 126 127
-5.093376520079282 -1.1523040631978265 -0.4761780612434465 129 127 128
-5.08039652004411 -1.1572738619950833 -0.48455910243160183 128 126 127
-4.853705819083692 -1.1988598516269127 -0.4811229950808733 129 127 128
-4.843786407109741 -1.2031800255795277 -0.4892582798918361 132 130 131
-4.819900209783839 -1.2098725546131806 -0.4965528488404658 133 132 133
-4.877402022069436 -1.2027160768695337 -0.5086646678465545 136 136 137
-4.766332856523862 -1.2241751881481413 -0.5105720195517836 138 138 139
-4.879781327104031 -1.2076041827605137 -0.5263444101455257 140 140 140
-4.683469666753892 -1.243314292774728 -0.5223650791343896 141 142 140
-4.636777636041047 -1.2537087381615992 -0.5277175540108111 143 145 143
-4.599847031114076 -1.2624247682429834 -0.5335901102696234 147 147 148
-4.515138782234885 -1.2790809785764978 -0.5360062511113476 149 149 151
-4.4706204225969355 -1.2889667165038856 -0.5410273357138002 151 151 153
-4.395815127905567 -1.3038352696013544 -0.543689748451089 153 153 155
-4.3195262189432055 -1.318876650381861 -0.5460005021305765 154 154 156
-4.2471034154547835 -1.3332062843843588 -0.548361517033424 156 156 158
-4.332420467984819 -1.3215307849841118 -0.562828890677869 157 157 159
-4.288046418170903 -1.331201018020209 -0.5672257831250445 158 158 160
-4.243178350181821 -1.3409096051169687 -0.5714419754109248 157 157 159
-4.215331484792941 -1.3478023436924174 -0.5769323247011775 157 157 157
-4.179092350395302 -1.3560321696307158 -0.5816245938628469 159 159 159
-4.103610353228149 -1.370581232529845 -0.5828067258799332 160 160 160
-4.421916016107363 -1.3214986608039156 -0.618481395985057 161 161 161
-4.393624948138071 -1.3285053244720133 -0.6240724960801626 160 160 160
-4.362409164746492 -1.3359547565469643 -0.6293085614577445 162 162 162
-4.358021585441427 -1.339085354544254 -0.6369485689147892 162 162 162
-4.257019213200755 -1.357612445160163 -0.6354122790246137 163 163 165
-4.592928555648604 -1.3168471380300821 -0.7096149713382099 167 167 169
-4.376400566930347 -1.3532610679157897 -0.6953723340208091 168 168 170
-4.137959908592175 -1.3928718772951267 -0.678070573133472 169 169 171
-3.9799062494051505 -1.4197561300848305 -0.6686817756129402 169 170 172
-3.8333302458251772 -1.4447045702809074 -0.6600294144552665 171 172 174
-3.6940002906166605 -1.4683874976901148 -0.6516981679464839 173 174 176
-3.5611709924004082 -1.4909304422511345 -0.643639589518962 174 175 177
-4.345480824994176 -1.3752071369448164 -0.7488292613545802 176 177 179
-4.35943098160561 -1.3755364501572263 -0.7586119322929781 175 176 178
-4.374677912395598 -1.3756854790010742 -0.7686051455170437 178 179 181
-5.0762800048486385 -1.27772204172859 -0.8811144549148708 184 184 186
-4.838369780836792 -1.3161766336175635 -0.8603119026467623 183 183 185
-4.5788691492727835 -1.357609962906345 -0.8359281666164261 184 184 186
-4.361353456636978 -1.39253672777117 -0.8161422470793864 184 184 186
-4.196601073009263 -1.4194246291000803 -0.8025919926339968 185 185 187
-3.848711558898363 -1.4731826427064594 -0.7639781774387405 184 184 186
-3.6820395437603186 -1.4999227789792542 -0.748742285387631 185 186 188
-3.526313447908898 -1.5248879678477887 -0.7344445857028128 188 187 192
-3.313925626760922 -1.5579715494223043 -0.7117458968806293 188 187 192
-4.81084654383281 -0.8391828063409889 0.7674342610382574 199 199 202
-4.7637226233157195 -0.8528110957472483 0.7513785836347149 198 200 199
-4.891762635636993 -0.824312066147967 0.7667837270881936 197 199 195
-4.848650910204676 -0.8369760714216274 0.751446495415357 191 193 188
-4.763420763349451 -0.8596879867664801 0.7288146246973486 177 177 168
-4.986467945906481 -0.8086575845927647 0.7602315908838766 144 138 113
-4.882742292967498 -0.8357709962094271 0.7344323209669927 94 79 44
-4.782819517465507 -0.8618903652297389 0.7095788853487079 99 80 41
-4.696940723138522 -0.8845866281030039 0.687398371485217 107 88 46
-4.57111024178456 -0.916687291662502 0.6587173170629594 104 85 44
-4.492264885268094 -0.9375541615182822 0.6382560467269711 84 64 30
-4.415794126402819 -0.9577925658596784 0.6184110605776193 62 48 19
-4.34071229607334 -0.9776380746095165 0.5990102396684152 46 36 13
-4.267579912697483 -0.9969604465745725 0.5801391565784972 32 25 12
-4.196588059001252 -1.0157172580708045 0.5618204463562434 19 14 7
-4.659071898353542 -0.9092625121599756 0.6290941305585227 13 10 5
-4.666610550426539 -0.9097441896961673 0.6228567460824983 9 8 5
-4.685793291818026 -0.9075129797165578 0.6184211277344389 8 7 5
-4.6766985088359085 -0.9118969903963782 0.6095205977855465 8 7 5
-4.66600118943091 -0.9166480001456212 0.6003931580608284 11 10 8
-4.601714497218809 -0.9338452427232863 0.5831032907698153 11 10 8
-4.613901045996032 -0.933249542457224 0.5775668838231098 9 8 7
-4.624388601621196 -0.9330598170282163 0.5717340474094195 8 6 7
-4.632891774881531 -0.933339771567717 0.565569837988954 6 4 5
-4.667114453394512 -0.9276976027617632 0.5631534333231012 8 6 7
-4.652634190480796 -0.9332981379750878 0.5535459666347202 7 5 6
-4.6571265283532775 -0.9345290167886642 0.5467066705440413 8 6 7
-4.646388276172137 -0.9392580602995226 0.5376771139787546 7 5 6
-4.6650942433091975 -0.937241177539998 0.5328261648039725 8 6 7
-5.54168153741151 -0.7392986614254096 0.6476632563308176 6 4 5
-5.549161802978624 -0.7402596159282442 0.6398763101644753 8 6 7
-5.560582146433619 -0.7403330512922786 0.6325982834495858 9 7 8
-5.558734335323151 -0.7434316984342029 0.6234857163182215 11 9 10
-5.5537014742101505 -0.7553010630121171 0.5873201799483534 10 8 9
-5.516543687762129 -0.7663427078247331 0.5736822796560674 11 9 10
-5.509220749198712 -0.7706587913486205 0.5639149833560708 12 10 11
-5.458523125126488 -0.7846838102927421 0.5487483091367493 10 9 9
-5.463489468864425 -0.7862252793364369 0.540589534275491 12 10 9
-5.4947185084701395 -0.7819158101786348 0.5356084588089376 13 12 10
-5.49692896897377 -0.7840959283811502 0.5270345877731 16 15 13
-5.515431970407572 -0.7880353159848803 0.5026043269557543 19 18 16
-5.5083407461927685 -0.7922915230326679 0.4928923728234462 21 19 17
-5.501259609552892 -0.7965413841242728 0.4831951980922362 22 20 16
-4.343111599346243 -1.0582268481568262 0.33093105644160314 26 22 21
-4.350877569107606 -1.0587007476735626 0.3245793721046274 26 22 21
-4.327126148106299 -1.0660566808425591 0.31487591673954207 25 21 22
-4.3414148106743085 -1.065114583176316 0.30919051919302243 27 23 23
-4.3756137356328235 -1.05986345009644 0.30549513528110617 27 23 22
-4.384594104108699 -1.0601104295343649 0.2991460541454296 28 24 23
-4.394105309046076 -1.060252645625615 0.2928165450968384 25 21 20
-4.392874707093841 -1.0627235005249613 0.28540061058052213 26 22 21
-4.403988514159481 -1.062536780938591 0.27917205074833484 29 25 24
-4.414924510721047 -1.0624002858411887 0.27288687362365815 30 26 25
-4.428852147275353 -1.0616341478646976 0.2668417689514778 28 24 23
-4.443307797850298 -1.0607696427148627 0.26079681541502975 25 21 20
-4.456421342994551 -1.0602068219818732 0.2545805948189501 25 21 20
-4.54436344653103 -1.0437147242788214 0.2549656626137775 22 18 17
-4.314050559898791 -1.094967654172235 0.2272883120506063 23 19 20
-4.25111010008667 -1.1105039264597178 0.21466391519449257 20 16 17
-4.009017792013231 -1.163908569717636 0.18712462318239875 21 17 15
-4.003043056269516 -1.167217955477122 0.17985714026283017 24 20 17
-3.9523701072170936 -1.179944601202633 0.168970502256235 32 28 22
-3.9426218208074473 -1.1840195530762492 0.1614949578625 45 36 26
-3.9151871532503333 -1.191798728521024 0.15266027710807983 61 47 32
-3.8964036392584016 -1.1977429061086098 0.14456684625352745 79 64 43
-3.8907863890581873 -1.2009206944917805 0.13751449346524214 97 82 54
-3.9233464679411396 -1.1961363580170805 0.13328442004183372 111 95 60
-3.9154899253929014 -1.1997906199691943 0.12603524796786203 118 101 65
-3.8907332131112855 -1.2069468326409596 0.11761177489803187 123 107 72
-3.885538969410589 -1.2100308972814866 0.11060889808966101 120 105 67
-3.9209090661654513 -1.2047306511685139 0.10635453023245811 109 94 59
-3.9191223200263483 -1.2071248744331675 0.09953469856100838 86 71 43
-3.8882504431239227 -1.215501646450829 0.09084043682057164 70 57 32
-3.8965535135871505 -1.2158118580702226 0.08469939800791437 64 54 31
-3.9061421258324445 -1.215868290541138 0.07860599158586445 65 53 31
-3.91017829021938 -1.217069710746166 0.07214515871704308 69 60 39
-3.9177631434587377 -1.2175533064701136 0.06587296799392539 75 67 46
-3.9255414324806 -1.2180063781240238 0.059582596884784844 79 71 50
-3.9354527555899206 -1.2180356700224286 0.053380181653376435 82 73 52
-4.00059748848139 -1.2068950823947673 0.0501050535818659 83 72 51
-4.016394468261628 -1.2057835199137217 0.04405112970945513 82 71 51
-4.028923210460203 -1.2074427305552824 0.030844303390093586 83 72 52
-3.9934534059439084 -1.2166540051039938 0.022221754598223065 84 73 53
-4.018345941691831 -1.2137559201219068 0.016474957963987014 85 74 52
-4.051381631150042 -1.2092574413700194 0.011006236528720681 85 73 52
-4.518317574967834 -1.120714529772964 0.01628201048712752 82 69 51
-4.568844322207283 -1.1130362806679772 0.010557768113908184 84 71 54
-4.522262805481372 -1.1246098818369408 0.0009652157373190029 83 70 53
-4.5168339645283195 -1.128023462424075 -0.0069832399218117125 81 69 52
-4.589452770386852 -1.1160743249147325 -0.012187682150330392 79 68 52
-4.581433381547097 -1.120027144313318 -0.020324216752924062 75 66 50
-4.553541599477736 -1.127866531023745 -0.029076497583073513 75 66 50
-4.565084551069614 -1.1279768077950916 -0.03655193016785141 77 70 53
-4.570924703421636 -1.1292115796410709 -0.04423437750524206 72 66 49
-4.579879746264696 -1.129848300494905 -0.05185718766976222 71 65 49
-4.620642140599595 -1.1243262137769923 -0.058699399815691056 74 67 53
-4.618939902517334 -1.1270611769225005 -0.06669851429817264 76 69 56
-4.625887445390279 -1.1281271104433075 -0.07450458408289884 78 72 60
-4.543953918168929 -1.146314521371339 -0.08419939883885807 79 74 62
-4.551785272131628 -1.1471858351405413 -0.09190607375281523 83 77 66
-4.555173109030739 -1.1489179782607772 -0.0997232482981627 86 80 71
-4.556337390790428 -1.1510803599667436 -0.10759398338940351 93 87 79
-4.561332546348876 -1.1525156462620312 -0.11541923639185003 102 96 90
-4.566343136319952 -1.153954845384536 -0.12326694149556994 107 104 98
-4.571940095743791 -1.1552896959485848 -0.13113065579525363 116 116 111
-4.579669573867284 -1.156228520507971 -0.13899791079375 124 123 120
-4.5881728471672965 -1.1570308072294946 -0.14689014430267555 134 133 131
-4.595327060257439 -1.1580972865935304 -0.15482533155310896 136 137 135
-4.413156566318484 -1.1947204420781081 -0.16376131736583788 138 139 136
-4.4131698498487575 -1.197051382558047 -0.17148064225327975 139 140 137
-4.4126339130669425 -1.1994869688032872 -0.179207825541561 135 135 135
-4.412098096917048 -1.2019240584291535 -0.18694005657603663 135 135 135
-4.606606818155416 -1.1681158370140712 -0.19491686419344956 134 134 135
-4.431361866510783 -1.2030335086506527 -0.20247705365632962 132 132 132
-4.4249395749846165 -1.2065732524639476 -0.21023089907386305 134 134 134
-4.433635982017195 -1.2073210775617185 -0.21806193745940372 132 132 132
-4.580737733450644 -1.1826251927432554 -0.22698053088630343 129 129 129
-4.571873695672551 -1.1866818798300747 -0.2349403617425767 128 128 128
-4.504752764484245 -1.2013898441828004 -0.24224934858754077 127 127 127
-4.4949882261002525 -1.2055697446365417 -0.2500620690441311 127 127 127
-4.485430016941701 -1.2097047416101039 -0.25785334292626705 127 127 127
-4.476224935184815 -1.2137684831300075 -0.26562642320178254 127 127 127
-4.708125653397914 -1.1741840768344447 -0.2775286320327064 127 127 127
-4.700666216105522 -1.17803613364301 -0.28567676501956973 126 126 126
-4.689333345619404 -1.1825804852522541 -0.2937290366621459 125 125 125
-4.679468485884439 -1.1868524339256574 -0.30178446872170417 125 125 125
-4.45301817868389 -1.2298986223826665 -0.304691944782189 124 124 124
-4.450723863652199 -1.2326982844789252 -0.31254036661923146 123 123 123
-4.234769761544072 -1.273547208807365 -0.3146447325669104 123 123 123
-4.212617252274168 -1.2797690023599901 -0.32158121570329723 123 123 123
-4.189809328826817 -1.2860872370739242 -0.3284329981382027 121 121 119
-4.179745395878938 -1.2901343512623067 -0.3356220081479423 122 122 120
-4.159873559143289 -1.2959010617708613 -0.3424579262120494 123 123 121
-4.117527153183504 -1.3055976904258415 -0.34845002577441475 121 122 119
-4.211531437846645 -1.2913732566066844 -0.35930115822246256 123 123 120
-4.1806743322072 -1.299050992932482 -0.36569199195655255 123 123 122
-5.154627698914228 -1.1344532172947446 -0.42114374772708685 124 122 122
-5.1731752227689745 -1.1339997185698079 -0.4310690302329716 124 122 122
-5.176695394653653 -1.1361619925051882 -0.44039066984493336 124 123 123
-5.13921335641196 -1.1453906022432445 -0.4478310024227452 125 123 124
-5.121309864152881 -1.151222990591855 -0.4560967213379785 127 125 126
-5.109604096662515 -1.1559790332569762 -0.4646195927630692 127 125 126
-5.102742885737455 -1.1598989068801158 -0.47336059089919447 128 126 127
-5.083380851611753 -1.1659423085826437 -0.4814258953287154 129 127 128
-4.882856606795707 -1.2027165463040732 -0.47955552101833065 130 128 129
-4.880490162624352 -1.205760507974134 -0.4881676942669233 130 128 129
-4.8382833813583614 -1.2155268156556702 -0.4944763144865387 132 130 131
-4.810453013114381 -1.2228349303622104 -0.5015088901935283 135 135 135
-4.7867247376671616 -1.2294296352717389 -0.5087083327874742 136 136 135
-4.763188811118814 -1.2359708884573202 -0.5158494377075117 140 140 138
-4.739361747023813 -1.2425395669268533 -0.5229019252934903 142 143 140
-4.7162312559662825 -1.2489710053939649 -0.529929498601386 144 146 144
-4.692964435219652 -1.255404267934288 -0.5368791252670835 145 145 146
-4.559191574697065 -1.2800773716465306 -0.5360959500796817 149 149 151
-4.494175934426339 -1.2932915179238387 -0.5397600246419413 150 150 152
-4.425497193619803 -1.3070445175835355 -0.5429501957524396 151 151 153
-4.346636311171034 -1.322398255902618 -0.5451635381237763 154 154 156
-4.27173719688199 -1.3370284101444292 -0.547423647230821 153 153 155
-4.372242073934005 -1.3230396397460307 -0.5630588490144014 155 155 157
-4.31601807490821 -1.3345818972746026 -0.5666078083261973 157 157 159
-4.27185822176062 -1.3441185760841754 -0.5709536583142597 157 157 159
-4.243457475759966 -1.351072036858182 -0.5764616187090629 158 158 158
-4.211063466453757 -1.358640887015165 -0.5815454847258863 159 159 159
-4.187049901459472 -1.3648364177176837 -0.5872486497702538 159 159 159
-4.359271661743435 -1.339665986404499 -0.6100716382097137 159 159 159
-4.417657248951277 -1.3327965923582195 -0.6233128633684522 160 160 160
-4.387241199225092 -1.3400826037743458 -0.6286795019715449 162 162 162
-4.275918782216089 -1.360140315741336 -0.6264576218818784 163 163 163
-4.132136057699405 -1.3852067116758913 -0.6208093080554508 163 163 165
-4.000354909388679 -1.4082429965661216 -0.6158381840713099 163 163 165
-3.870243930774709 -1.4308860695307521 -0.6105950968229761 163 163 165
-4.436170170490336 -1.3521394055676355 -0.698706350443463 168 168 170
-4.17023927591865 -1.395620553555978 -0.6787321553180525 167 168 170
-4.012642829399364 -1.422188331290707 -0.6695412196480917 169 170 172
-3.8628431265977214 -1.4474035379648738 -0.6606786544980144 171 172 174
-3.7226520066803666 -1.4710013779489417 -0.6523845896101821 171 172 174
-3.586844989968033 -1.4937910671500079 -0.644117694866924 172 173 175
-3.47934606822608 -1.5121523241616648 -0.6386389834576902 174 175 177
-3.3773346331816416 -1.5295763024787898 -0.6334399649636705 176 177 179
-4.1193884546908395 -1.4221473473934132 -0.7351624260808917 178 179 181
-4.873584864938061 -1.3199177590105058 -0.8615652676188211 183 183 185
-4.630670407331246 -1.3584875556426916 -0.8395219433890286 184 184 186
-4.408764659795461 -1.3937216023740102 -0.8193850562686547 185 185 187
-4.208566167798063 -1.425549782594735 -0.8013529624646595 185 185 187
-3.871226874998769 -1.4771878576309605 -0.7643746847974019 185 186 188
-3.7015794235445263 -1.5040928859534914 -0.7488758441881407 185 186 188
-3.5444088052634273 -1.5290163824307117 -0.7345076664529369 187 186 191
-3.359162096321954 -1.557832870870674 -0.7157228971887981 187 186 191
-4.889078118455066 -0.8286032280970074 0.7846640430223344 198 198 201
-4.969088220062067 -0.8117902998757782 0.7914654210821939 198 199 199
-4.9013305287351985 -0.8303249763839684 0.7715157128916434 198 200 196
-4.860742769881644 -0.8423282395114327 0.7565906571497727 192 194 189
-4.736194346847297 -0.8742684430788975 0.726952406367595 179 180 172
-5.014996095347493 -0.810339351972438 0.768299051469651 152 147 123
-4.913068881520844 -0.8368812338940066 0.742713388880192 96 83 49
-4.826145822820059 -0.8597868477970017 0.7199996119212366 98 79 43
-4.731015570160033 -0.8845561252130891 0.6961289451016808 104 84 46
-4.59567910293984 -0.9187193521624031 0.6657187062693453 99 79 40
-4.5118109321669015 -0.9406589511362011 0.6443349484541215 88 68 34
-4.430618842893543 -0.9618985022830218 0.6236334909331751 66 52 19
-4.360118870393244 -0.9805628610952697 0.6049255601114459 50 39 16
-4.286402974224634 -0.9999193085395992 0.5858903864746475 34 25 14
-4.2148537868791 -1.0187068245709534 0.5674146856384776 23 17 11
-4.6633046328811645 -0.9162556812083811 0.632670768378633 12 9 4
-4.6683647670742845 -0.917330888485899 0.6260379697701686 8 7 4
-4.695259912967854 -0.9133433936974689 0.6228281035436705 8 7 5
-4.694900995510328 -0.9156965857116536 0.6152747392952724 10 9 7
-4.679485694753084 -0.9215334430365318 0.605385301997194 11 10 8
-4.67417086230756 -0.9250271113244128 0.5970834690851505 12 11 9
-4.6518960199549255 -0.9324253138765073 0.5862148798492186 8 7 6
-4.614056677094359 -0.9433846373624072 0.5730638523840781 7 5 6
-4.726217287177682 -0.919887399052981 0.582361627614588 6 4 5
-4.665037378525812 -0.9361962249999936 0.5657573452609304 8 6 7
-4.653551233875007 -0.9410920655611474 0.556582925068718 8 6 7
-4.662093750198927 -0.9414097040095919 0.5503313560098178 8 6 7
-4.666589158603728 -0.9426584633658315 0.5434692872357227 8 6 7
-4.680154193583378 -0.941851797886861 0.5378722115633605 7 5 6
-4.679531127972227 -0.9442774633837463 0.5302403566651315 7 5 6
-5.563413985305913 -0.7464630437994809 0.645271864780409 8 6 7
-5.5235548686989935 -0.7741843136523752 0.5779907816353875 10 8 9
-5.515782546600863 -0.7785961658607007 0.5681530795098542 10 8 9
-5.4839058306759325 -0.7883631574720447 0.5553086857681653 10 8 9
-5.475289950954033 -0.7929419295715331 0.5454334297515528 9 7 8
-5.510897915985932 -0.7877213484619426 0.5409898975862182 11 9 10
-5.509163436386114 -0.7907881627220847 0.5319173683705931 13 11 12
-5.526486771404545 -0.79774426923211 0.4983931305191027 20 19 16
-5.512450754809265 -0.8035166031333074 0.4878767956305996 18 17 13
-4.997268265458252 -0.9186796645792425 0.42127710686591735 19 20 15
-5.039104863012626 -0.9120324301056246 0.4177521075557231 20 21 16
-5.0335129042833575 -0.915735972519848 0.4089258911025371 25 22 20
-4.975465817801093 -0.930816273872289 0.3944711625893915 24 20 19
-4.373004209244564 -1.0680901541568875 0.30799953266125024 27 23 22
-4.378519564817428 -1.0690989421797434 0.3013088633289873 28 24 23
-4.395782613224401 -1.067592766204608 0.2957699443405303 28 24 23
-4.3928162041605505 -1.0704375995730437 0.2881808172748357 26 22 21
-4.398263922891324 -1.0714830363261991 0.2814102988724564 28 24 23
-4.412554474660332 -1.070649161449592 0.27546123986044724 28 24 23
-4.42682388751248 -1.069834736052918 0.2694608183950852 28 24 23
-4.445972538489542 -1.0679989857193848 0.26386203847091894 25 21 20
-4.460613315817264 -1.067138011487778 0.2577891895953186 25 21 20
-4.631477248217722 -1.0332561031215228 0.26563365240369885 23 19 18
-4.365146861560151 -1.0917851220782178 0.23452675722864047 23 19 18
-4.288183210281746 -1.1102003097230344 0.22057822946120287 22 18 17
-4.029916914824243 -1.1666367650815928 0.19147136981371227 23 19 18
-3.9878854182874144 -1.1775079493719127 0.1811645144906171 22 19 18
-3.955430544282096 -1.1863390520952555 0.17176321095827074 30 26 23
-3.93238649973005 -1.1931778623480633 0.16321059490519585 42 34 26
-3.9339347759715384 -1.1948758209533414 0.15665978319783802 57 44 32
-3.9025526608302257 -1.203419481794231 0.14755449837778667 77 61 44
-3.89146864513582 -1.2077275586981586 0.1400763993028552 93 79 53
-3.904277937742017 -1.207084442472689 0.134399421479514 105 90 58
-3.90911678635765 -1.208100008398457 0.1280983675405616 114 98 64
-3.8926969794025115 -1.2134997578498883 0.1202643344189277 120 104 72
-3.885768146880273 -1.2169358609941758 0.11313556907126887 119 104 69
-3.8956664038629922 -1.2169175191082968 0.10716798860062782 106 91 58
-3.9019369955683394 -1.2176521209536433 0.10092293321358148 87 73 45
-3.887524151734774 -1.2226154099566544 0.09330814461564696 67 56 31
-3.8916478598777253 -1.2237926641346868 0.08690860785297538 65 58 34
-3.9005897878992655 -1.2239966577410357 0.08078913003775756 63 54 31
-3.906131694740368 -1.2248998565509004 0.07443102293972892 65 56 35
-3.9123564190778484 -1.225671885851367 0.06809028869339917 73 65 44
-3.925605985140461 -1.225034183864489 0.0621272972400706 78 70 49
-4.184074057076557 -1.1772173479430286 0.06264302807582622 84 73 51
-4.1843067876413 -1.1793385372246163 0.05549558454203862 81 70 48
-4.182222318518354 -1.1819249823463802 0.04822273102071506 81 70 48
-4.0090999880309806 -1.218618803283375 0.0324666822509716 84 73 52
-4.02699892834047 -1.2171492528323862 0.026419533287275643 84 73 51
-4.000287976432242 -1.2245523154352258 0.018236537222352633 85 74 52
-4.0247610415260775 -1.2217973292112885 0.012431109067727042 81 70 48
-4.039409482536741 -1.221007883568202 0.006117353560041172 82 69 49
-4.713060814189774 -1.0927992543898377 0.01929353368249198 82 69 52
-4.705449885224826 -1.0967260405515664 0.010959581606313051 81 68 50
-4.677535989708703 -1.1046200515184226 0.001887724694190851 81 69 50
-4.619617565808418 -1.118346057187755 -0.00817249281712673 78 68 50
-4.609507047219959 -1.1227109054514153 -0.016430963718466307 74 65 48
-4.555332942515882 -1.1356268778423466 -0.026096198813141847 78 66 49
-4.563465502033205 -1.1364210981251173 -0.03367211859421371 75 66 48
-4.570803801185999 -1.1373786008251983 -0.04130360131503674 71 64 46
-4.632679369145636 -1.1278297093839131 -0.04744919793528912 72 64 46
-4.658363438115118 -1.1253025908671954 -0.054744726843291236 73 66 50
-4.622736345064923 -1.1345652390018217 -0.06363938686907611 75 67 53
-4.629345766878241 -1.1357126259241461 -0.07145411006873936 74 67 54
-4.558080737955953 -1.1517354291185788 -0.08097177682032286 78 70 58
-4.56550358979861 -1.1527076011764548 -0.08870320203097126 78 71 59
-4.566498020022143 -1.1549100505917933 -0.09658290989383 81 73 63
-4.569003437389514 -1.1568292283201418 -0.10444725840295055 84 75 66
-4.572045958055345 -1.158651369564579 -0.11231822438802053 92 84 75
-4.572739156538215 -1.160921411512889 -0.12023771810446005 94 90 82
-4.575597729465083 -1.162787019045032 -0.12814021493772532 103 100 94
-4.581604593586554 -1.164066943893844 -0.13602570969189243 112 111 107
-4.587506133593618 -1.1653744302668574 -0.1439380889544022 120 120 116
-4.594326623430655 -1.166518199254628 -0.1518694060957082 128 130 125
-4.602636814659445 -1.1673933519184145 -0.15982080325575898 133 134 130
-4.43403892890123 -1.2011211038915246 -0.16853617960074685 136 137 132
-4.436142507397226 -1.2030806427548222 -0.17628910514256657 135 136 133
-4.431788715929308 -1.2062368386270346 -0.18406164463109065 134 134 133
-4.441452371491683 -1.206808838421416 -0.1918360870275042 134 134 134
-4.444221992020538 -1.208658793924622 -0.19963271640134994 133 133 133
-4.446996852193012 -1.2105125270092134 -0.2074450130994725 131 131 131
-4.448028677939451 -1.2126895576250167 -0.21526354395016045 130 130 130
-4.708084192546152 -1.167656973501268 -0.2249102068339529 130 130 130
-4.702022123959911 -1.1712550759049034 -0.23310188117121178 129 129 129
-4.6967372022876175 -1.1747085949118847 -0.24128932801827374 128 128 128
-4.694117792151758 -1.1776772042866523 -0.24949857992597768 126 126 126
-4.6033932197544845 -1.1965337718929583 -0.256524296869342 126 126 126
-4.643526506839127 -1.1917699087778013 -0.26523221968525923 126 126 126
-4.699437752272028 -1.1842172500269244 -0.27433848182346543 124 124 124
-4.692812308777767 -1.1879074372786715 -0.2824911850573568 125 125 125
-4.5457528409744405 -1.2166451851562794 -0.28784310133231883 123 123 123
-4.478940071339583 -1.230965824480374 -0.2944504665407125 124 124 124
-4.473285762374234 -1.2343730993920239 -0.3022602204471935 123 123 123
-4.2398307664557855 -1.278080654744385 -0.3044373889899631 122 122 122
-4.216757595909414 -1.2844431345787792 -0.3113990779211121 122 122 122
-4.209612996963085 -1.287982472207106 -0.31873739414995195 122 122 122
-4.185871317208352 -1.2944289190738238 -0.3255692729877988 122 122 120
-4.153705714139808 -1.3023280331369202 -0.3320686425008782 122 122 120
-4.127035748191024 -1.3092387396468217 -0.33865048205713544 121 121 119
-4.100419857789897 -1.3161158521754632 -0.3451543025505164 120 120 117
-4.154567037090256 -1.3089567404270963 -0.35448600505854533 122 123 119
-4.120468333545008 -1.3171197564980512 -0.36067968902954806 122 122 120
-5.153522363765649 -1.1439141660590326 -0.41777146580520874 120 119 118
-5.153226514869294 -1.146727142236145 -0.42688178085646444 123 122 120
-5.14901985052867 -1.1502111503465609 -0.4358265966783862 124 123 121
-5.139740421156145 -1.1545585579543598 -0.4445336092903095 123 122 121
-5.125852588992607 -1.159682878526608 -0.4529999795821783 125 123 124
-5.111839075161821 -1.1648172159014254 -0.4614228909705633 126 124 125
-5.122490966285693 -1.1657702995297459 -0.47105779645517054 127 125 126
-5.09162538716423 -1.173734563436744 -0.4785640684467307 127 125 126
-4.894901043350633 -1.2095455290786168 -0.4770303750206911 128 126 127
-4.88520954671676 -1.2138229902457276 -0.4852554197118244 130 128 129
-4.895549676254516 -1.214746481221582 -0.49460272217073786 133 131 132
-4.867559166945922 -1.2220674707057524 -0.5017353871866803 133 133 131
-4.804193076470053 -1.2352379734070815 -0.5066432352946151 135 135 133
-4.7823511984752445 -1.241472224801442 -0.5139312928903933 137 138 133
-4.756309787464764 -1.2483802745618375 -0.5208871555201962 140 141 138
-4.714061862427828 -1.2605116151877538 -0.535224154828934 144 144 145
-4.703364703217124 -1.2648434573710254 -0.5430163444151708 148 148 150
-4.682806175631282 -1.2707750812533019 -0.5500864821272786 150 150 152
-4.6602461154162755 -1.2770138159878992 -0.5569519652758452 152 152 154
-4.3726774372712045 -1.3261841115241089 -0.5442151803216849 153 153 155
-4.296321224169847 -1.3409413335005573 -0.5464523856113855 153 153 155
-4.2261099960753254 -1.354634226889124 -0.5489167752888532 156 156 158
-4.343398527640356 -1.3381517034584764 -0.5659096503776679 158 158 160
-4.302105384178237 -1.3471730786131948 -0.5705567582623603 157 157 159
-4.271926041552781 -1.354381659418137 -0.5759851420984187 158 158 158
-4.244500107844037 -1.36112400120409 -0.5815505254938773 157 157 157
-4.217360347268886 -1.3677954268019075 -0.587055975037603 160 160 160
-4.472326239768441 -1.3298546113669558 -0.6170251677702959 161 161 161
-4.443547317243974 -1.3368762398607381 -0.622688972124159 160 160 160
-4.410475938946263 -1.3445450671013341 -0.6278761391602341 161 161 161
-4.380166702776236 -1.3517502595295319 -0.6332142253690446 161 161 161
-4.20372325844616 -1.3817277254542026 -0.6247653926135772 162 162 164
-4.064139795619497 -1.4057959738380363 -0.6192482075517796 163 163 165
-3.9325717035994177 -1.428482148319953 -0.6140478687123813 163 163 165
-4.056272615905509 -1.4230759996266944 -0.6715281965619821 169 170 172
-3.8938786423498613 -1.4499718354830766 -0.6614578812017003 169 170 172
-3.7520297037951837 -1.4736027361823685 -0.6531165541767303 171 172 174
-3.6077051550796475 -1.4974628369747685 -0.6440245356948958 173 174 176
-3.4991132917018644 -1.5158203391169742 -0.6385205787886887 174 175 177
-3.2718719038292616 -1.553704198823799 -0.6252478368578551 177 178 180
-4.931655746090085 -1.3204346273003291 -0.8656507850814903 184 184 186
-4.683553459221439 -1.3593834490158465 -0.8431907804578648 184 184 186
-4.457122112733648 -1.3949302073588339 -0.8226925572438757 185 185 187
-4.2478115923476905 -1.4277668453134809 -0.803670338935921 185 185 187
-4.050821193206905 -1.4586120965360323 -0.7855742185848895 185 185 187
-3.721306978885441 -1.5083027769867354 -0.7490107817218964 185 186 188
-3.562671265966977 -1.5331827340192457 -0.7345713965606101 188 187 192
-3.3983875185371972 -1.5587059831904828 -0.718816907711139 187 186 191
-4.8950175009529335 -0.8354756938514363 0.7887619683129612 199 199 202
-4.978933583304429 -0.8178649948137269 0.7963096816860815 198 200 200
-4.9109332567894155 -0.8363598261384849 0.7762649442943161 198 200 197
-4.845497959616164 -0.8541900450579479 0.7568674074859527 194 196 191
-4.760817981160191 -0.8765125664133678 0.7342432873870441 180 182 174
-4.678736541634481 -0.8981500898548741 0.7123134112244673 159 156 136
-4.982779879897292 -0.8288142458135281 0.7578911185678623 103 90 59
-4.870538740448611 -0.8575680439301261 0.7306538097645039 96 78 42
-4.370430131972941 -0.9771994172852342 0.6372739269574165 103 85 47
-4.701913969660134 -0.9017095452228734 0.6866232924743061 100 83 44
-4.505902237285063 -0.9497731651298078 0.6461481623302534 89 72 35
-4.432949876818003 -0.9689650390433737 0.6267863423804056 71 57 23
-4.372935664819428 -0.9850826775875905 0.6097720384738106 52 41 15
-4.301427686981571 -1.0038199026853878 0.5910397697326464 32 23 11
-4.233264578970289 -1.0217202031623795 0.5730533788603179 20 14 9
-4.243876724457787 -1.0213279345812882 0.5679579688249237 9 7 3
-4.683607157437301 -0.9218073532450077 0.6313760366594261 9 8 5
-4.7171681041306925 -0.9163349808954406 0.629215373764713 9 7 6
-4.7053805057857225 -0.9213310006691475 0.6198384898919136 10 9 7
-4.700953512114184 -0.9246277389896822 0.6116333380601182 13 12 10
-4.650754264336197 -0.9384163214289152 0.596389722840176 14 13 11
-4.658432979382071 -0.9389187421238778 0.5901102683423609 9 7 6
-4.664019975469467 -0.9399075633980543 0.5834862838741395 6 4 4
-4.7074563873472535 -0.9322761358217393 0.5824993421903484 7 5 6
-4.717500506985897 -0.9322815441309725 0.5764346408228096 10 8 9
-4.6656072160296755 -0.9463603081807725 0.5612540755658895 9 7 8
-4.668069557907361 -0.948077902447793 0.5541082451159582 7 5 6
-4.669602171538536 -0.9500098618730626 0.5468153132141467 7 5 6
-4.684312461371839 -0.9489707916804477 0.5413853938923265 7 5 6
-4.696176926561426 -0.9485878158242547 0.5355054080195718 8 6 7
-5.509509148147172 -0.7920744526329141 0.561926070274857 9 7 8
-5.507851776418508 -0.795121996133548 0.5528751912465253 9 7 8
-5.523703413369146 -0.7943204043744952 0.5459751080652169 10 8 9
-5.522869948349545 -0.7971965983097763 0.5369932029545854 14 12 13
-5.041548466411587 -0.9177129083330277 0.429384990481132 16 16 12
-5.061063172162945 -0.9159832136783734 0.4233398618134725 19 18 15
-5.029335238566034 -0.9253320260749485 0.4116152055304845 22 19 17
-4.9991050930769685 -0.9343315752153256 0.4001404608244161 23 19 18
-4.98040545786084 -0.9408278271992969 0.3899781185492135 25 21 21
-4.977194933697875 -0.9439875853123844 0.381492279659174 25 21 21
-4.364837533117072 -1.0774981973141027 0.3099255924884411 26 24 22
-4.371888434657154 -1.0781874537459017 0.3034080473751074 26 23 22
-4.380401344230811 -1.0785734876180524 0.2970101445154445 28 26 24
-4.393801974747235 -1.0779299308983032 0.291064553427975 27 23 23
-4.405521286212819 -1.077657216419293 0.28490838962507425 26 21 22
-4.4109081865470765 -1.0787377258265587 0.2781025455890772 27 22 22
-4.423769290193385 -1.0782461361945215 0.2719806850452785 26 21 22
-4.444272827886496 -1.0761572683001268 0.2665245513969696 24 20 19
-4.46085778119066 -1.0749133157503075 0.26064158584888086 25 21 20
-4.679556015268492 -1.0312681960378876 0.27288962074822143 25 21 20
-4.434227203684765 -1.0849999375768413 0.24341538497823678 24 19 19
-4.006986566294757 -1.1765194618595856 0.19885996862695554 22 18 18
-3.983372367080855 -1.1834937620350385 0.19008007613859546 22 19 18
-3.991181540897597 -1.1839109296231878 0.18400318659341608 21 18 17
-3.959086272824787 -1.192620133888 0.17460865737279485 28 24 20
-3.9659468442741788 -1.1932332584674255 0.16845672644049514 40 31 25
-3.943709480604219 -1.1998675512326795 0.15996904337908446 54 40 29
-3.9276522064807184 -1.2052087757282592 0.15202439165905535 71 57 40
-3.892902266132294 -1.214382444196255 0.1426965784879537 88 73 50
-3.9073443992267287 -1.213428379659805 0.13714780853909547 101 86 55
-3.909752568872125 -1.2149539674826815 0.13066769444488546 111 96 63
-3.894770755493676 -1.2200369125281736 0.12292720736717355 118 102 69
-3.8867955606080633 -1.223679234945115 0.11571868692703824 119 103 70
-3.880358485372938 -1.2270030139379033 0.10863450470856217 104 88 57
-3.8920280446070956 -1.226647936912011 0.10277986737150724 90 75 46
-3.8856667384372936 -1.229956281347147 0.09570096222810576 71 61 35
-3.8883066204211256 -1.2314420956109187 0.08921249557821065 67 59 35
-3.8951685718441884 -1.2320811683813513 0.08297417486759207 64 56 32
-3.900526120938247 -1.2330308847562725 0.07661726515404566 64 55 34
-3.9081047487673053 -1.2335417728765043 0.07037014658672625 73 63 43
-3.9213158351539565 -1.232934186460329 0.06442006197568029 76 67 46
-4.195686562090184 -1.1823678701434188 0.06597281341466121 84 73 52
-4.189893552444166 -1.1856957113047666 0.05848748973618312 83 72 51
-4.191569028565532 -1.1875392098929258 0.05140023221874701 84 73 52
-3.986261062944886 -1.2303278794515284 0.033914818207016695 84 73 51
-4.005050207562565 -1.2287039788844871 0.027957664695667517 83 72 49
-4.0175924958126545 -1.2283293122288979 0.021642210585922417 85 75 52
-3.998458334746015 -1.23418924417484 0.01383960481030222 80 70 47
-4.019082474018775 -1.2322434990344102 0.007838946530932644 79 66 46
-4.044468173535627 -1.2293883626740296 0.0019702191505583944 83 70 51
-4.74073750386317 -1.0957517586583496 0.02343478068575866 83 70 52
-4.727107280762451 -1.100853768649282 0.014817731883967289 81 69 48
-4.724240690840956 -1.1038565189386083 0.006642536043832914 81 70 49
-4.64454723320995 -1.1217292723855503 -0.0043113993376644455 78 68 49
-4.634347513583715 -1.1261103940298995 -0.012616730860500525 78 69 50
-4.709540726900193 -1.1140361789258706 -0.0180730354672074 78 69 50
-4.69853880089887 -1.1185967678829487 -0.026487171830530176 75 65 47
-4.689507997848764 -1.122771242166046 -0.034814848521455 72 63 45
-4.64196146487802 -1.13430303401765 -0.04421416205745321 74 65 48
-4.659933447959702 -1.133296475471995 -0.05171492158390589 73 65 49
-4.669270368084129 -1.1339518361459897 -0.059496955593654643 75 66 53
-4.6388434423048635 -1.1421638409446067 -0.06825646190781032 75 67 55
-4.5739083002675835 -1.1568808307678193 -0.07768985458409694 77 69 57
-4.578678190145126 -1.1583771362330078 -0.08549524406004316 75 67 55
-4.578953467668652 -1.16072655219196 -0.09340770077933125 76 69 57
-4.574960485169333 -1.163880122316497 -0.10140207205653062 81 73 61
-4.575342276246856 -1.1662122471596306 -0.10932163919651061 83 74 65
-4.575723848105293 -1.1685468719990137 -0.11724931759957902 87 80 72
-4.58022818160227 -1.1701154109339487 -0.12513300945724248 93 89 81
-4.58547969916239 -1.1715514410181687 -0.13302960752835402 100 97 92
-4.590662801815124 -1.173007304505612 -0.1409504144206739 107 107 102
-4.595941630200477 -1.174452550099588 -0.14889384075545609 116 117 112
-4.603917223256248 -1.1754074466709246 -0.15684397401765793 125 127 122
-4.611069881976547 -1.1765235699397014 -0.1648302884555497 131 132 128
-4.445792711802969 -1.2092950960347721 -0.17338593547222503 133 134 130
-4.445265798624942 -1.2117518770019071 -0.1811694634792339 135 135 133
-4.444820332118747 -1.2141953437678832 -0.18895812395791023 132 132 132
-4.4526362089998495 -1.2151361849122877 -0.1967657582060971 131 131 131
-4.459973271264562 -1.2161736040847786 -0.20460357815988828 129 129 130
-4.463210345389155 -1.2179627758312401 -0.21245183370216503 128 128 129
-4.593519324333796 -1.1968037849748823 -0.22113428355305897 128 128 128
-4.821246658383935 -1.1582234309779738 -0.23102210038554916 127 127 127
-4.819348259463424 -1.1611214586001966 -0.23943487481064463 127 127 127
-4.761170750179246 -1.1741038513764184 -0.24721708169170598 126 126 126
-4.596657451301165 -1.206033288841727 -0.2534559831529667 126 126 126
-4.596188475696824 -1.208571325835179 -0.26154231692211005 123 123 123
-4.692807694733146 -1.1938566711731844 -0.27119141155961435 123 123 123
-4.684567575092096 -1.1978227017812535 -0.27930780244705256 123 123 123
-4.579358720373375 -1.2189215303180587 -0.28553802510771076 123 123 123
-4.490493534088482 -1.2370391970884125 -0.29177785101890497 120 120 120
-4.484725386210059 -1.2404664581729454 -0.2996059596405134 122 122 122
-4.23985790803914 -1.2880941680154072 -0.3092311035085986 121 121 121
-4.200286450210904 -1.2972884781992209 -0.315724277002314 120 120 120
-4.172771618628834 -1.304350464777796 -0.32244499744025945 120 120 118
-4.1413551359363705 -1.3120636893088922 -0.32896413150598847 122 122 120
-4.111451869954464 -1.3194865334054313 -0.33543679686429073 119 119 117
-4.076948040422895 -1.327674813627477 -0.3416636548243446 117 118 115
-4.098625125643613 -1.3261767779872273 -0.3497744518145651 118 119 116
